ncols 377
nrows 47
xllcorner 2468964
yllcorner 1142561.925
cellsize 1009.975000
NODATA_value -9999
-9999 -9999 -9999 -9999 -9999 -9999 -9999 -9999 -9999 -9999 -9999 -9999 -9999 -9999 -9999 -9999 -9999 -9999 -9999 -9999 -9999 -9999 -9999 -9999 -9999 -9999 -9999 -9999 -9999 -9999 -9999 -9999 -9999 -9999 -9999 -9999 -9999 -9999 -9999 -9999 -9999 -9999 -9999 -9999 -9999 -9999 -9999 -9999 -9999 -9999 -9999 -9999 -9999 -9999 1121 1091 1082 1115 1329 1401 1356 1295 1197 1056 868 645 620 553 505 489 595 566 475 469 429 429 429 429 429 429 429 429 429 437 474 486 490 492 475 445 445 445 444 444 467 543 586 638 613 572 581 605 637 656 652 616 532 579 582 588 604 644 661 656 649 635 665 721 745 685 698 730 742 777 766 746 734 789 807 955 990 909 682 534 710 804 670 585 531 622 667 783 657 914 1035 1032 1006 955 947 905 908 842 930 925 936 941 856 849 1006 1092 1175 1130 1078 890 1006 1425 1379 1248 1487 1571 1608 1014 1059 1439 1580 1415 1619 1488 1384 1314 1049 868 727 501 488 469 473 566 707 878 1184 1283 947 1023 1315 1806 1558 1090 622 1004 1537 1804 2449 2403 2235 2337 2518 2468 2546 2475 2408 2532 2621 1487 1441 1667 1383 735 464 482 848 994 1306 1480 1920 1781 2150 1799 1508 1786 2127 2023 2295 2244 2689 2685 2760 2898 2894 2407 2289 2241 1337 1363 2776 2130 1868 2023 2469 2779 2472 2332 2310 2122 2337 2210 2274 2016 2079 2383 2296 2060 1814 1714 1661 1532 1372 1277 1419 1323 1256 1280 1788 1823 1690 1424 865 1080 1106 881 758 577 567 569 581 587 631 1285 1408 1312 1243 1261 1429 1474 1716 1667 1740 1492 1616 1924 1987 1886 1792 2359 2487 2509 2580 2491 2265 1743 1640 1548 1680 1937 2275 2236 2388 2279 1586 1811 2498 2604 2659 2517 2636 2755 2948 2993 2839 2878 2674 2459 2580 2626 2483 2598 2155 2403 2794 2809 2512 2313 2303 2225 2112 1975 1908 1807 1441 1235 1123 1130 1367 1837 2099 2656 2615 -9999 -9999 -9999 -9999 -9999 -9999 -9999 -9999 -9999 -9999 -9999 -9999 -9999 -9999 -9999 -9999 -9999 -9999 -9999 -9999
-9999 -9999 -9999 -9999 -9999 -9999 -9999 -9999 -9999 -9999 -9999 -9999 -9999 -9999 -9999 -9999 -9999 -9999 -9999 -9999 -9999 -9999 -9999 -9999 -9999 -9999 -9999 -9999 -9999 -9999 -9999 -9999 -9999 -9999 -9999 -9999 -9999 -9999 -9999 -9999 -9999 -9999 -9999 -9999 -9999 -9999 -9999 -9999 -9999 -9999 -9999 -9999 -9999 1100 1086 1083 1087 1148 1234 1276 1189 1179 1062 596 579 550 544 517 463 452 442 435 429 429 429 429 429 429 429 429 429 430 479 485 483 482 490 453 447 446 446 446 446 450 491 575 608 609 563 609 611 625 670 645 604 557 532 575 581 625 630 658 667 688 683 669 685 729 759 746 712 767 783 718 778 801 814 862 838 867 902 928 590 537 541 645 624 613 532 574 619 637 611 711 851 907 1026 1047 1020 1025 996 920 985 1045 1043 974 903 1009 1001 1164 1290 1092 945 1076 1085 1328 1467 1373 1909 1878 1417 1043 1127 1668 1678 1500 1595 1468 1240 1153 928 690 596 505 483 473 709 798 1000 1200 1515 1497 1190 998 1260 1713 1500 1411 691 863 1582 1779 2055 1885 1927 2205 2247 2434 2737 2604 2541 2672 2451 1754 1785 1568 1465 892 459 463 1607 1873 1860 1973 2184 2315 1906 1638 1314 1882 2291 2591 2390 2396 2954 2933 2967 2923 2744 2122 1976 1854 1397 1779 2851 2585 2258 2016 2625 2599 2588 2415 1944 1617 2024 1873 2152 1836 1927 2287 2315 2220 2034 1839 1560 1384 1248 1081 1072 999 977 985 1311 1345 1354 1162 773 729 628 583 575 571 646 684 997 1223 825 668 995 891 920 1084 1117 995 1082 1111 1195 1223 1397 1606 1781 1662 1916 2322 2283 2386 2564 2495 2247 1786 1617 1752 1924 1950 1943 2411 2400 2254 1804 1811 2411 2522 2510 2559 2541 2503 3029 2883 2640 2992 2685 2339 2603 2738 2549 2554 1982 2213 2585 2598 2458 2332 1998 1967 1916 1687 1562 1451 1192 1120 1453 1691 1859 1898 2139 2541 -9999 -9999 -9999 -9999 -9999 -9999 -9999 -9999 -9999 -9999 -9999 -9999 -9999 -9999 -9999 -9999 -9999 -9999 -9999 -9999 -9999
-9999 -9999 -9999 -9999 -9999 -9999 -9999 -9999 -9999 -9999 -9999 -9999 -9999 -9999 -9999 -9999 -9999 -9999 -9999 -9999 -9999 -9999 -9999 -9999 -9999 -9999 -9999 -9999 -9999 -9999 -9999 -9999 -9999 -9999 -9999 -9999 -9999 -9999 -9999 -9999 -9999 -9999 -9999 -9999 -9999 -9999 -9999 -9999 -9999 -9999 -9999 -9999 -9999 1100 1104 1090 1090 1091 1055 1005 1038 1045 724 572 592 593 545 497 458 454 431 429 429 429 429 429 429 429 429 429 436 558 573 511 485 479 464 450 449 447 447 448 458 469 509 552 550 567 608 617 642 633 635 588 575 620 611 555 594 660 662 647 659 679 663 695 716 724 766 723 691 784 768 721 725 729 794 931 998 929 945 846 655 570 540 548 605 613 533 573 565 584 643 846 1023 1059 1098 1049 1023 1000 995 906 967 1036 1140 1130 977 928 1042 1005 949 1006 1234 1329 1259 1276 1554 1951 1726 1543 1314 1175 1133 1334 1495 1706 1524 1434 1203 1133 1097 719 568 501 487 636 1016 1231 1338 1453 1880 1268 889 1310 1566 2111 2148 1868 958 913 1252 1388 1333 1360 1721 2269 2411 2546 1924 1803 1974 2063 2351 1819 1980 2277 2039 1250 468 465 1149 1771 2193 2181 2284 2063 2052 1517 1401 1808 2373 2556 2965 2959 2820 2835 2867 2893 2595 2123 2331 2262 1739 1808 2855 2634 2231 2201 2570 2494 2380 2359 2186 1850 1669 1733 2138 1943 1779 2156 2220 1976 1946 1737 1343 1265 1185 1085 1054 940 865 791 903 896 840 802 645 604 594 583 579 624 699 986 1528 1435 961 764 823 1298 1320 1266 1150 1111 1255 1277 1323 1405 1301 1397 1462 1625 1783 2009 2114 2266 2550 2418 2114 1861 1555 1892 2153 2312 2206 2311 2624 2653 2338 1999 2182 2153 2198 2295 2356 2561 2663 2525 2654 2843 2598 2188 2212 2565 2804 2535 2171 2086 2434 2342 2272 2240 1920 1661 1618 1446 1326 1215 1168 1264 1882 2108 2273 2061 2254 2631 -9999 -9999 -9999 -9999 -9999 -9999 -9999 -9999 -9999 -9999 -9999 -9999 -9999 -9999 -9999 -9999 -9999 -9999 -9999 -9999 -9999
-9999 -9999 -9999 -9999 -9999 -9999 -9999 -9999 -9999 -9999 -9999 -9999 -9999 -9999 -9999 -9999 -9999 -9999 -9999 -9999 -9999 -9999 -9999 -9999 -9999 -9999 -9999 -9999 -9999 -9999 -9999 -9999 -9999 -9999 -9999 -9999 -9999 -9999 -9999 -9999 -9999 -9999 -9999 -9999 -9999 -9999 -9999 -9999 -9999 -9999 -9999 -9999 -9999 1103 1098 1115 1226 1054 1033 1074 821 763 576 579 583 560 544 516 477 429 429 429 429 429 429 429 429 429 440 479 638 622 593 607 505 471 465 470 454 449 449 471 472 478 504 586 570 645 659 657 712 668 586 582 634 616 614 597 553 678 675 653 650 674 667 728 789 750 759 709 787 792 793 801 817 785 826 908 913 893 899 848 717 610 542 544 606 599 537 551 559 579 647 936 1010 1061 946 909 962 966 997 971 917 948 1031 1094 1211 1037 903 880 886 1004 1060 1062 1152 1255 1705 1946 1622 1433 1311 1360 1269 1176 1217 1511 1557 1540 1564 1472 1433 954 1024 625 598 1268 985 1226 1805 1971 1544 1206 972 1492 1817 2030 1846 1391 1155 1001 997 1006 1029 1485 1838 1983 2211 2487 1794 1753 2021 2265 2507 2406 2362 1633 1541 1086 617 467 976 1229 1820 2160 2252 2139 2024 1566 1563 2190 2711 2669 2673 2888 2749 2660 2757 2763 2519 2585 2682 2419 2015 1957 2735 2422 2194 2510 2439 2489 2358 2054 2073 1896 1381 1612 2203 2020 1801 1972 2012 1750 1693 1653 1310 1194 1108 1049 1021 979 909 794 798 681 657 640 585 622 628 701 932 975 1109 1409 1648 1411 977 1119 1591 1635 1596 1486 1358 1402 1627 1672 1779 1855 1641 1483 1668 1830 1875 1817 2004 2386 2323 2247 1848 1648 1609 1937 2018 2095 2254 2450 2679 2842 2497 2227 1990 2477 2696 2898 2841 2822 2620 2371 2200 2487 2667 2539 2004 2540 2584 2515 2208 1958 2078 1974 1981 1943 1743 1408 1368 1168 1161 1262 1683 1549 1771 2103 2748 2430 2472 2534 -9999 -9999 -9999 -9999 -9999 -9999 -9999 -9999 -9999 -9999 -9999 -9999 -9999 -9999 -9999 -9999 -9999 -9999 -9999 -9999 -9999
-9999 -9999 -9999 -9999 -9999 -9999 -9999 -9999 -9999 -9999 -9999 -9999 -9999 -9999 -9999 -9999 -9999 -9999 -9999 -9999 -9999 -9999 -9999 -9999 -9999 -9999 -9999 -9999 -9999 -9999 -9999 -9999 -9999 -9999 -9999 -9999 -9999 -9999 -9999 -9999 -9999 -9999 -9999 -9999 -9999 -9999 -9999 -9999 -9999 -9999 -9999 -9999 -9999 1147 1174 1262 1200 1207 1213 1214 799 606 564 544 528 505 497 482 429 429 429 429 429 430 434 431 429 430 579 626 637 597 613 567 583 541 534 519 483 455 474 489 498 547 531 560 599 633 653 690 688 630 640 644 633 648 660 546 620 685 655 666 688 702 704 764 828 802 773 794 807 808 848 808 798 734 820 785 814 797 801 792 735 626 548 548 620 587 539 551 565 590 682 802 858 862 849 885 913 916 915 925 968 1034 1102 1130 1207 1147 1135 1104 1017 948 948 949 965 1073 1631 1749 1466 1326 1324 1456 1425 1318 1229 1286 1421 1492 1721 1781 1371 1345 1111 690 775 1721 1158 1124 1689 1932 1851 1073 1016 1602 1994 2374 2292 1493 1285 1210 1225 1218 1024 1138 1470 1798 2141 2126 1572 1844 2588 2797 2067 1725 1650 1155 1097 1091 1038 593 582 910 1406 1677 2058 2332 2656 1961 2092 2820 2545 2294 2159 2316 2576 2666 2838 2671 2756 3302 3051 2480 2278 2955 2792 2543 2481 2395 2198 2183 2280 1993 1638 1681 1263 1478 2021 1951 1746 1803 1838 1445 1447 1491 1294 1095 1094 1098 1011 902 881 745 722 741 674 660 636 598 721 1548 1716 1780 1832 2104 1656 1382 1037 1338 1819 1913 1951 1709 1595 1870 1991 2080 2065 2007 1736 1417 1762 1979 2059 2044 2223 2367 2099 1956 1631 1560 1720 1818 1845 1841 2028 2397 2553 2759 2426 2275 2061 2150 2250 2586 2718 2459 2775 2837 2029 2409 2717 2404 1927 2350 2251 2269 2306 1752 1836 1782 1647 1636 1418 1233 1192 1312 1408 1684 2016 2136 1563 1973 2748 2745 2573 -9999 -9999 -9999 -9999 -9999 -9999 -9999 -9999 -9999 -9999 -9999 -9999 -9999 -9999 -9999 -9999 -9999 -9999 -9999 -9999 -9999 -9999
-9999 -9999 -9999 -9999 -9999 -9999 -9999 -9999 -9999 -9999 -9999 -9999 -9999 -9999 -9999 -9999 -9999 -9999 -9999 -9999 -9999 -9999 -9999 -9999 -9999 -9999 -9999 -9999 -9999 -9999 -9999 -9999 -9999 -9999 -9999 -9999 -9999 -9999 -9999 -9999 -9999 -9999 -9999 -9999 -9999 -9999 -9999 -9999 -9999 -9999 -9999 -9999 -9999 -9999 1255 1332 1373 1194 867 796 611 558 524 506 481 481 469 435 429 429 429 429 453 471 468 438 439 491 667 671 622 654 558 627 630 605 558 506 461 457 503 528 630 644 571 569 622 661 658 712 654 620 648 651 691 686 662 543 610 674 640 644 710 741 755 763 819 781 819 847 862 818 865 843 787 781 760 854 904 919 845 765 783 689 554 553 628 581 540 569 568 649 663 746 816 818 831 853 853 911 920 946 986 1161 1314 1320 1388 1382 1320 1144 1205 1148 1156 1129 1098 1017 1131 1187 1225 1306 1349 1495 1574 1415 1365 1342 1491 1501 1793 1857 1543 1305 867 707 1022 1785 1172 1234 1703 1879 1664 1077 1115 1671 1860 2167 2360 1954 1502 1715 1278 1315 1423 1117 1097 1698 1891 1688 1612 2086 2951 2511 1790 1736 1868 1697 1534 1812 1325 984 477 596 1244 1826 2124 2658 2498 2492 2474 2393 2263 1801 2240 2332 2549 2726 2821 2326 2448 3288 2960 2768 3071 3161 2809 2618 2147 1961 1918 1803 2104 2118 1654 1583 1251 1217 1741 1667 1668 1666 1840 1439 1234 1254 1096 975 951 887 784 787 718 656 842 1085 1096 842 620 733 1383 1602 1852 1969 1954 2093 1767 1525 1132 1363 1823 2243 2226 2119 1871 2045 2351 2298 2066 1927 1617 1469 1852 2187 2294 2434 2438 2238 1898 1721 1539 1612 1627 1986 2229 2039 1887 2164 2517 2653 2721 2468 2386 2704 2417 2766 2853 2344 2527 2591 1890 2124 2388 2244 1821 2081 1956 1973 2121 1673 1618 1605 1318 1299 1293 1262 1418 1517 1678 2059 2292 2101 1549 1681 2141 2594 -9999 -9999 -9999 -9999 -9999 -9999 -9999 -9999 -9999 -9999 -9999 -9999 -9999 -9999 -9999 -9999 -9999 -9999 -9999 -9999 -9999 -9999 -9999
-9999 -9999 -9999 -9999 -9999 -9999 -9999 -9999 -9999 -9999 -9999 -9999 -9999 -9999 -9999 -9999 -9999 -9999 -9999 -9999 -9999 -9999 -9999 -9999 -9999 -9999 -9999 -9999 -9999 -9999 -9999 -9999 -9999 -9999 -9999 -9999 -9999 -9999 -9999 -9999 -9999 -9999 -9999 -9999 -9999 -9999 -9999 -9999 -9999 -9999 -9999 -9999 -9999 -9999 -9999 1306 1200 1079 688 627 638 555 535 484 452 450 435 433 430 429 430 491 538 502 471 468 486 636 675 670 673 676 602 683 683 579 552 480 461 460 496 532 623 628 623 639 633 632 644 657 638 662 667 665 704 676 654 562 669 704 675 690 698 717 743 801 810 824 805 890 864 865 920 869 846 820 826 943 1010 1025 1007 816 789 730 562 559 655 577 554 545 570 730 760 750 866 842 801 825 830 917 929 1041 1107 1202 1158 1218 1217 1243 1200 1307 1354 1309 1336 1439 1498 1527 1317 1108 1312 1335 1448 1535 1688 1853 1797 1816 1899 1759 1960 1824 1628 1075 749 843 1083 1840 1272 1615 1723 1828 1607 1320 1322 1824 1987 2385 2447 2469 1687 1738 1763 1692 2005 1551 1485 1175 1288 1340 1821 2206 2629 2484 2161 1960 2004 2175 2336 2157 1864 1233 496 550 1285 1705 2712 2395 2393 2151 2125 1946 1593 1631 2693 2749 2867 2356 2460 2176 2433 3013 3185 2953 2785 2848 2500 2378 2231 2262 2073 1612 1777 2001 1638 1505 1340 1113 1426 1304 1435 1464 1603 1357 935 1007 982 905 747 705 821 1100 1268 1001 763 1214 1382 1046 690 627 1208 1509 1583 1750 1870 2124 1935 1670 1211 1332 1731 2151 2204 2248 1987 2189 2437 2174 1914 1798 1599 1675 2050 2197 2417 2425 2482 2312 1842 1568 1730 1978 2008 1682 1965 2441 2262 1963 2128 2502 2610 2503 2680 2510 2552 2694 2852 2369 2220 2410 2038 1806 1767 1736 1632 1637 1666 1600 1597 1512 1345 1347 1354 1421 1529 1492 1533 1756 1985 2270 2517 2043 1953 1808 1857 2161 -9999 -9999 -9999 -9999 -9999 -9999 -9999 -9999 -9999 -9999 -9999 -9999 -9999 -9999 -9999 -9999 -9999 -9999 -9999 -9999 -9999 -9999 -9999
-9999 -9999 -9999 -9999 -9999 -9999 -9999 -9999 -9999 -9999 -9999 -9999 -9999 -9999 -9999 -9999 -9999 -9999 -9999 -9999 -9999 -9999 -9999 -9999 -9999 -9999 -9999 -9999 -9999 -9999 -9999 -9999 -9999 -9999 -9999 -9999 -9999 -9999 -9999 -9999 -9999 -9999 -9999 -9999 -9999 -9999 -9999 -9999 -9999 -9999 -9999 -9999 -9999 -9999 1182 1360 1204 920 616 609 590 554 530 440 505 513 433 432 431 433 510 598 563 488 463 543 543 630 668 687 680 633 635 720 643 561 512 479 459 467 582 621 660 638 648 668 685 731 713 682 665 646 606 642 612 622 580 623 681 738 696 703 741 719 742 754 787 873 794 929 887 956 952 946 825 843 814 855 946 942 902 895 827 758 570 567 596 560 552 548 547 634 655 646 694 705 702 727 785 827 917 1027 991 984 996 1016 1040 1052 1145 1346 1611 1855 1917 1903 1718 1560 1190 1186 1397 1471 1639 1898 1935 2122 2158 1950 1998 2011 1858 1704 1425 756 689 866 1118 1680 1405 1772 1894 1958 1584 1721 1791 2065 2278 2163 2168 2232 2421 2086 1825 1940 2395 2528 1920 1587 1473 1943 2360 2616 2845 2751 2657 2674 2592 2399 2190 2067 2019 1541 622 534 1218 1650 2257 2037 2163 1945 1831 1478 1653 2079 2783 2849 2686 2429 2095 2051 2330 2752 2817 2700 2408 2748 2905 2857 2539 2410 2255 1789 1520 1752 1566 1414 1263 1042 1055 1074 1158 1121 1214 1149 692 686 723 809 977 1082 1000 1441 1560 1074 947 1139 1651 1307 790 624 1167 1299 1276 1615 1937 2252 1852 1583 1284 1249 1570 1740 2300 2225 2028 2357 2204 1990 1852 1724 1656 1833 2278 2620 2539 2303 2218 2025 1651 1520 1954 2124 2394 1739 1740 2323 2463 2395 2262 2353 2735 2682 2598 2460 2168 2412 2621 2688 2501 1929 1892 1634 1433 1420 1439 1437 1416 1389 1378 1346 1318 1464 1468 1563 1733 1579 1853 2353 2256 2898 2719 2111 2307 2643 2234 2396 2609 -9999 -9999 -9999 -9999 -9999 -9999 -9999 -9999 -9999 -9999 -9999 -9999 -9999 -9999 -9999 -9999 -9999 -9999 -9999 -9999 -9999 -9999
-9999 -9999 -9999 -9999 -9999 -9999 -9999 -9999 -9999 -9999 -9999 -9999 -9999 -9999 -9999 -9999 -9999 -9999 -9999 -9999 -9999 -9999 -9999 -9999 -9999 -9999 -9999 -9999 -9999 -9999 -9999 -9999 -9999 -9999 -9999 -9999 -9999 -9999 -9999 -9999 -9999 -9999 -9999 -9999 -9999 -9999 -9999 -9999 -9999 -9999 -9999 -9999 -9999 1338 1337 1194 764 663 610 612 551 488 463 443 498 458 432 432 435 450 566 576 556 584 569 588 621 640 652 710 647 636 680 679 614 553 529 471 473 537 648 694 695 669 677 697 756 742 721 707 676 656 633 658 592 625 623 624 638 705 741 759 812 807 794 766 800 837 863 1009 1061 1052 1100 997 884 857 830 873 882 885 936 897 870 747 583 617 650 598 553 551 551 557 580 589 700 757 858 890 1000 918 840 928 993 1076 1189 1190 1231 1127 1128 1609 1832 1729 1850 1723 1559 1352 1209 1312 1516 1701 1949 1791 1543 1809 1814 1565 1579 1610 1767 1578 1042 738 713 1080 1441 1723 1473 1687 2167 2008 1823 1992 2061 2056 2020 2002 1857 1984 2161 2173 2227 2127 2557 2764 2111 2242 2262 2448 2830 2853 2866 2849 2531 2762 2558 2281 2217 1728 1859 1493 685 515 1157 1465 1636 1521 1549 1453 1243 1351 1815 1974 2587 2713 2256 2545 2253 1908 2233 2472 2463 2838 2336 2320 2619 2498 2267 2116 1958 1639 1483 1479 1389 1200 1028 772 856 1004 985 713 709 706 706 772 1032 1306 1501 1456 1288 1547 1633 1341 1280 1041 1747 1478 1200 921 761 973 1144 1571 1800 2358 1907 1863 1627 1451 1483 1664 2245 2398 2247 2265 2127 1880 1840 1742 1873 2094 2321 2420 2373 2303 2078 1806 1527 1597 2006 2171 2422 2544 2098 1871 2167 2608 2405 2264 2808 2844 2786 2734 2421 2201 2262 2362 2254 1837 1447 1422 1554 1636 1768 1740 1801 1731 1696 1722 1657 1804 1687 1770 2145 1926 1708 2588 2738 2807 2908 2753 2718 2579 2188 2310 2668 2732 -9999 -9999 -9999 -9999 -9999 -9999 -9999 -9999 -9999 -9999 -9999 -9999 -9999 -9999 -9999 -9999 -9999 -9999 -9999 -9999 -9999
-9999 -9999 -9999 -9999 -9999 -9999 -9999 -9999 -9999 -9999 -9999 -9999 -9999 -9999 -9999 -9999 -9999 -9999 -9999 -9999 -9999 -9999 -9999 -9999 -9999 -9999 -9999 -9999 -9999 -9999 -9999 -9999 -9999 -9999 -9999 -9999 -9999 -9999 -9999 -9999 -9999 -9999 -9999 -9999 -9999 -9999 -9999 -9999 -9999 -9999 -9999 -9999 1290 1253 1076 869 676 627 573 530 494 448 444 440 435 433 433 437 439 498 567 541 620 636 501 623 640 713 690 703 671 653 688 596 558 559 512 466 566 596 661 712 692 685 692 720 735 724 739 704 648 654 677 639 636 673 681 723 719 665 728 777 838 855 881 897 876 802 805 1024 1156 1161 1014 948 942 893 907 936 965 995 1038 966 754 624 639 709 630 611 581 556 557 557 573 612 763 876 1006 1022 1112 1006 913 1043 1111 1211 1292 1382 1280 1270 1339 1618 1648 1596 1700 1574 1425 1475 1261 1399 1810 1903 1691 1436 1314 1140 1215 1178 1276 1200 1734 1769 1188 922 894 1358 1543 1880 1747 1624 2237 2050 1941 1898 1932 2011 1979 1678 1760 1902 2050 2185 2561 2662 2669 2628 2543 2715 2688 2694 2507 2517 2544 2875 2225 2486 2500 2343 2117 1859 1563 1305 682 529 774 934 1079 1098 1186 1263 1390 2038 2295 1999 2519 2760 2198 2232 2230 1888 2269 2685 2683 2483 2367 1890 2129 2097 1957 1733 1439 1156 1116 1044 951 798 842 1091 1204 1247 1244 1190 1124 807 775 1040 1524 1637 1789 1654 1433 1637 1981 1677 1322 914 1834 1706 1128 832 634 861 1094 1451 1614 2095 2295 2132 1765 1627 1487 1613 2173 2522 2504 2346 2164 2097 2155 1842 2056 2375 2540 2490 2257 2097 2004 1603 1672 2049 1688 1836 2280 2421 2282 1836 1916 2549 2659 2344 2748 2669 2637 2483 2082 1884 1894 1891 1788 1514 1450 1677 2015 1924 2245 2237 2211 2110 1953 2111 2221 1766 2076 2133 2660 2349 1703 2199 2476 2815 2891 2850 2891 2655 2439 2280 2592 -9999 -9999 -9999 -9999 -9999 -9999 -9999 -9999 -9999 -9999 -9999 -9999 -9999 -9999 -9999 -9999 -9999 -9999 -9999 -9999 -9999 -9999
-9999 -9999 -9999 -9999 -9999 -9999 -9999 -9999 -9999 -9999 -9999 -9999 -9999 -9999 -9999 -9999 -9999 -9999 -9999 -9999 -9999 -9999 -9999 -9999 -9999 -9999 -9999 -9999 -9999 -9999 -9999 -9999 -9999 -9999 -9999 -9999 -9999 -9999 -9999 -9999 -9999 -9999 -9999 -9999 -9999 -9999 -9999 -9999 -9999 1115 1149 1142 1107 1037 823 775 654 622 576 502 482 435 435 435 435 437 436 439 490 508 556 604 592 498 516 621 695 708 690 676 663 649 629 557 599 526 474 472 580 595 685 726 697 702 726 711 711 714 683 653 701 695 626 598 682 725 743 739 761 731 721 751 824 839 920 991 902 850 785 872 922 1031 1185 1222 1249 1241 1146 1232 1074 1160 1166 1009 744 630 632 672 643 625 615 562 561 556 567 630 877 919 1015 1070 1083 1097 978 1033 1087 1219 1406 1411 1349 1562 1696 1521 1491 1572 1692 1560 1473 1425 1390 1689 1704 1433 1070 804 764 809 816 802 896 847 1196 1346 1200 966 1088 1394 1524 1604 1803 1906 2086 2103 2336 2064 2043 1971 1673 1724 1861 2205 2567 2725 2559 2215 2152 2454 2680 2473 2640 2462 1927 2115 2554 2724 2235 2291 2391 2084 1797 1582 1360 890 669 823 1249 1184 1049 1318 1351 1759 1984 2570 2454 2077 2811 2646 2377 1874 1816 1782 2101 2520 2211 1983 1730 1726 1262 1233 1168 1136 1047 855 843 821 924 1017 1311 1320 1433 1551 1566 1387 1276 993 776 1211 1648 1793 2051 2112 1905 1874 2128 1776 1570 985 1915 1705 1160 895 625 798 919 1430 1561 1735 2047 2222 1817 1655 1541 1687 2159 2575 2448 2263 2211 2352 1908 2004 2200 2297 2522 2356 1972 1766 1637 1614 1821 2226 1892 1744 2202 2438 2409 2127 1881 2397 2586 2500 2410 2302 2201 2039 2168 2151 2290 1971 1934 1447 1512 2284 2591 2158 2543 2457 2464 2335 1960 2336 2286 1916 2452 2603 2813 2442 1685 1941 2587 2627 2370 2646 2769 2878 2654 2393 -9999 -9999 -9999 -9999 -9999 -9999 -9999 -9999 -9999 -9999 -9999 -9999 -9999 -9999 -9999 -9999 -9999 -9999 -9999 -9999 -9999 -9999 -9999
-9999 -9999 -9999 -9999 -9999 -9999 -9999 -9999 -9999 -9999 -9999 -9999 -9999 -9999 -9999 -9999 -9999 -9999 -9999 -9999 -9999 -9999 -9999 -9999 -9999 -9999 -9999 -9999 -9999 -9999 -9999 -9999 -9999 -9999 -9999 -9999 -9999 -9999 -9999 -9999 -9999 -9999 -9999 -9999 -9999 -9999 -9999 -9999 -9999 961 988 1006 939 791 724 750 655 623 561 495 456 437 436 435 435 531 553 556 551 564 580 593 556 508 570 658 741 730 688 685 687 659 591 681 650 476 471 558 642 654 709 723 719 741 723 727 731 724 692 670 713 708 688 613 706 785 788 771 755 742 774 796 770 835 973 987 923 845 801 940 1046 1137 1336 1450 1496 1332 1393 1453 1354 1390 1485 1134 836 731 656 683 673 634 616 569 566 564 559 574 746 848 1027 1157 1191 1160 1079 1190 1264 1374 1454 1725 1803 1876 1705 1436 1318 1682 1688 1560 1552 1459 1820 1714 1271 933 564 564 564 564 583 663 652 662 747 940 974 1052 1082 1084 1160 1402 1615 1762 1779 1795 2136 2379 2116 1573 1430 2123 2313 2534 2435 2026 1651 1713 2182 2833 2745 2101 2259 2248 1782 1936 2272 2435 2261 1875 1753 2149 2065 1598 1259 669 1044 1360 1906 1870 1247 1695 1814 2293 2458 2776 2315 2422 2506 2383 2541 2636 2512 1813 1486 2178 2034 1765 1350 1318 1022 904 858 847 868 1069 1156 1218 1262 1269 1445 1529 1611 1657 1796 1589 1478 1117 881 1158 1304 1386 1811 2132 2401 2142 1970 1617 1415 1211 1910 1692 1199 974 628 660 812 1199 1419 1968 2200 2109 1711 1561 1555 1778 2243 2748 2636 2524 2583 2333 2146 2445 2468 2489 2334 2322 2233 1893 1614 1694 1878 2347 2148 1847 2107 2317 2627 2189 2038 2223 2494 2828 2636 2475 2107 2246 2695 2486 2769 2444 2213 1468 1557 2263 2738 2397 2716 2482 2698 2352 2037 2609 2390 2028 2329 2852 2539 2242 1679 1750 2185 2167 2068 2458 2588 2749 2804 -9999 -9999 -9999 -9999 -9999 -9999 -9999 -9999 -9999 -9999 -9999 -9999 -9999 -9999 -9999 -9999 -9999 -9999 -9999 -9999 -9999 -9999 -9999 -9999
-9999 -9999 -9999 -9999 -9999 -9999 -9999 -9999 -9999 -9999 -9999 -9999 -9999 -9999 -9999 -9999 -9999 -9999 -9999 -9999 -9999 -9999 -9999 -9999 -9999 -9999 -9999 -9999 -9999 -9999 -9999 -9999 -9999 -9999 -9999 -9999 -9999 -9999 -9999 -9999 -9999 -9999 -9999 -9999 -9999 -9999 -9999 -9999 873 864 879 848 785 713 630 629 618 619 520 475 446 439 437 437 571 572 588 572 585 613 666 592 552 576 582 670 732 738 708 741 684 647 670 664 648 475 534 591 706 708 761 760 757 691 676 682 677 674 670 670 701 699 688 608 707 746 768 814 771 813 820 840 846 801 899 881 860 829 862 1079 1278 1412 1516 1515 1477 1465 1564 1543 1582 1505 1486 1088 932 809 680 698 722 648 637 578 595 565 559 558 558 615 798 1096 1138 1050 1173 1270 1349 1465 1738 1677 1772 1767 1538 1265 1282 1579 1576 1592 1675 1865 1478 1222 681 564 564 564 564 564 564 586 580 580 580 581 598 647 732 917 969 1196 1391 1459 1789 1864 2132 2117 1568 1452 1879 2184 1828 1599 1609 1530 1891 2067 2548 2665 2660 2015 1817 1789 1770 1757 1996 2132 2293 2306 1968 1731 2025 1283 871 1062 1845 2313 2623 2222 1464 2123 2472 2655 2685 2883 2661 2644 2665 2657 2406 2455 2135 1813 1367 1842 1708 1386 1073 990 868 914 932 1113 1230 1475 1502 1417 1520 1506 1702 1756 1852 1969 1759 1531 1402 1112 853 1012 1158 1291 1676 2020 2648 2229 1864 1309 1160 1606 1984 1673 1206 967 637 635 766 1291 1606 2163 2317 2022 1611 1504 1614 1798 2401 2557 2779 2594 2360 2340 2595 2568 2364 2082 2119 2217 2030 1791 1434 1893 1961 2389 2406 2093 2000 2266 2603 2502 2279 2018 2347 2862 2697 2743 2180 2444 2825 2706 2763 2334 1980 1468 1730 2412 2729 2630 2771 2650 2703 2476 2290 2810 2684 2044 2149 2722 2243 2007 1926 1894 1935 1985 2235 2512 2507 2523 2806 -9999 -9999 -9999 -9999 -9999 -9999 -9999 -9999 -9999 -9999 -9999 -9999 -9999 -9999 -9999 -9999 -9999 -9999 -9999 -9999 -9999 -9999 -9999 -9999
-9999 -9999 -9999 -9999 -9999 -9999 -9999 -9999 -9999 -9999 -9999 -9999 -9999 -9999 -9999 -9999 -9999 -9999 -9999 -9999 -9999 -9999 -9999 -9999 -9999 -9999 -9999 -9999 -9999 -9999 -9999 -9999 -9999 -9999 -9999 -9999 -9999 -9999 -9999 -9999 -9999 -9999 -9999 -9999 -9999 -9999 1346 1166 910 779 756 715 745 886 762 705 625 598 520 494 446 439 439 461 564 593 602 574 609 689 677 585 544 577 600 745 770 801 797 770 703 699 663 647 548 495 630 671 740 759 792 800 727 696 690 643 653 651 673 686 714 683 702 654 724 780 825 788 853 877 893 924 935 887 890 958 949 845 910 1202 1357 1311 1378 1369 1318 1517 1489 1518 1600 1462 1357 1251 1113 948 737 700 703 665 645 638 607 564 559 558 558 558 621 935 1050 940 1059 1326 1466 1762 1318 1611 1811 1682 1532 1246 1115 1207 1258 1540 1507 1165 641 564 564 564 564 564 564 691 684 583 572 576 578 580 588 586 586 619 813 1037 1180 1402 1767 1984 1955 1710 1278 1844 1898 1584 1358 1220 1739 1792 1729 1783 1907 2023 2258 1996 2354 2409 2291 2060 1665 1473 1480 1576 2022 1825 1410 807 825 1557 1847 2186 2712 2366 1893 2069 2335 2381 2401 2801 2669 2557 2429 2341 2243 2041 1944 1652 1233 1308 1207 1132 895 911 1266 1426 1196 1559 1624 1845 1884 1558 1691 1685 1751 1971 1927 1794 1582 1340 1251 893 875 1299 1434 1472 1976 2335 2598 2138 1841 1181 1408 2013 1940 1633 1230 1003 643 639 721 1137 1599 1778 1961 1966 1603 1520 1528 1659 2135 2507 2591 2448 2522 2527 2465 2368 2188 1872 1863 1819 1902 1473 1536 2053 2316 2457 2525 2272 1956 2284 2596 2496 2451 2004 2145 2794 2806 2601 2315 2517 2876 2658 2400 1967 1909 1504 1642 2282 2565 2734 2657 2447 2522 2637 2330 2841 2827 2283 2099 2272 2033 1993 2079 2241 2001 1980 2226 2681 2821 2804 2859 2915 -9999 -9999 -9999 -9999 -9999 -9999 -9999 -9999 -9999 -9999 -9999 -9999 -9999 -9999 -9999 -9999 -9999 -9999 -9999 -9999 -9999 -9999 -9999
-9999 -9999 -9999 -9999 -9999 -9999 -9999 -9999 -9999 -9999 -9999 -9999 -9999 -9999 -9999 -9999 -9999 -9999 -9999 -9999 -9999 -9999 -9999 -9999 -9999 -9999 -9999 -9999 -9999 -9999 -9999 -9999 -9999 -9999 -9999 -9999 -9999 -9999 -9999 -9999 -9999 -9999 -9999 -9999 -9999 1202 1187 793 768 813 838 923 1053 910 771 702 638 595 554 533 453 440 440 461 535 571 596 573 635 689 681 588 545 580 617 708 761 777 752 750 735 615 584 607 483 587 668 713 784 792 788 724 693 697 661 699 716 702 713 706 717 717 701 682 760 879 890 845 928 980 1028 1073 1101 994 1005 1160 1112 953 898 1021 1101 1132 1234 1220 1216 1274 1309 1397 1459 1508 1487 1453 1248 1133 902 831 707 690 683 649 657 597 559 558 558 558 558 750 776 886 994 1329 1652 1278 1664 1916 1663 1613 1320 1044 965 1331 1548 1420 930 707 564 564 564 612 815 1421 1289 1494 1516 1533 1895 1889 1509 1522 1485 1319 1149 791 605 618 731 929 1354 1282 1163 1112 948 973 1003 1260 1533 2147 2359 2316 2215 2186 2062 2110 2482 2247 2458 3089 2562 2418 2245 1938 1407 1277 1378 1668 1277 878 1460 1701 1980 2226 2508 2400 2185 2068 2303 2144 2254 2800 2639 2282 2172 2046 2047 1794 1698 1322 1032 991 983 918 944 1218 1764 1837 1508 1818 2008 2083 2007 1678 1894 1888 1827 1990 1767 1643 1409 1202 1071 873 1123 1338 1884 1914 2187 2529 2312 1754 1633 1239 1613 1987 1819 1595 1278 1085 671 649 697 1061 1240 1600 1666 1973 1631 1542 1459 1633 2479 2546 2546 2167 2264 2086 1990 2007 1876 1862 1529 1534 1781 1484 1638 1965 2205 2560 2714 2434 1931 2061 2373 2572 2735 2301 2150 2473 2565 2374 2632 2717 2822 2740 2275 2382 2231 1704 1452 1739 1941 2135 2166 2150 2666 2636 2711 2709 2842 2259 2118 2296 2361 2390 2268 2072 2341 2364 1979 2355 2575 2918 3039 -9999 -9999 -9999 -9999 -9999 -9999 -9999 -9999 -9999 -9999 -9999 -9999 -9999 -9999 -9999 -9999 -9999 -9999 -9999 -9999 -9999 -9999 -9999 -9999
-9999 -9999 -9999 -9999 -9999 -9999 -9999 -9999 -9999 -9999 -9999 -9999 -9999 -9999 -9999 -9999 -9999 -9999 -9999 -9999 -9999 -9999 -9999 -9999 -9999 -9999 -9999 -9999 -9999 -9999 -9999 -9999 -9999 -9999 -9999 -9999 -9999 -9999 -9999 -9999 -9999 -9999 -9999 1131 1099 1057 771 846 882 961 1092 1100 892 846 766 711 634 596 574 523 444 441 443 484 541 578 594 574 642 691 680 578 571 581 679 736 767 802 788 789 672 630 574 497 546 703 733 787 767 728 726 687 689 677 697 757 756 751 814 800 757 753 734 752 827 950 965 869 1080 1143 1229 1232 1083 974 1212 1415 1382 1227 1043 1045 1049 1016 1066 1109 1288 1374 1489 1668 1643 1715 1774 1601 1608 1555 1300 1236 893 690 658 707 726 646 605 582 558 558 558 558 558 728 793 1244 1241 1431 1796 1688 1320 1432 1180 898 1104 1403 1112 821 572 564 564 564 573 1022 1273 1503 1320 1765 1804 1925 1916 1770 1765 2103 1758 1811 1724 1227 1007 714 745 644 814 840 866 912 1218 1355 1389 1304 1752 2409 2659 2681 2590 2358 2076 2259 2572 2692 2539 2974 2823 2681 2276 1962 1941 1871 1312 1150 938 1326 1778 1777 2083 2496 2625 2443 2277 2304 2522 2121 2177 2533 2513 2216 1807 1749 1648 1436 1155 1054 1140 1283 1331 1347 1080 1454 1916 1977 1901 1916 2251 2219 2089 1836 1944 2115 2070 1978 1641 1555 1261 1118 922 1016 1081 1407 1568 1812 2132 2308 2145 1862 1424 1408 1680 1952 1810 1539 1199 1029 754 745 671 735 879 1389 1505 1731 1614 1313 1431 1585 2322 2639 2381 2014 1955 1879 1698 1669 1677 1668 1389 1366 1388 1859 1790 2022 2115 2468 2664 2477 2138 2420 2165 2432 2849 2355 2362 2532 2753 2561 2697 2883 2742 2600 2535 2687 2371 1670 1436 1489 1558 1782 1953 2184 2487 2578 2840 2769 2813 2452 2403 2483 2640 2407 2330 2108 2611 2509 2102 2173 2243 2486 -9999 -9999 -9999 -9999 -9999 -9999 -9999 -9999 -9999 -9999 -9999 -9999 -9999 -9999 -9999 -9999 -9999 -9999 -9999 -9999 -9999 -9999 -9999 -9999 -9999
-9999 -9999 -9999 -9999 -9999 -9999 -9999 -9999 -9999 -9999 -9999 -9999 -9999 -9999 -9999 -9999 -9999 -9999 -9999 -9999 -9999 -9999 -9999 -9999 -9999 -9999 -9999 -9999 -9999 -9999 -9999 -9999 -9999 -9999 -9999 -9999 -9999 -9999 -9999 -9999 -9999 1181 1193 1182 1134 1088 883 1220 1136 1094 967 944 826 761 730 701 637 573 561 506 440 440 443 496 572 602 600 598 662 699 659 573 611 628 723 760 811 810 783 771 642 644 519 547 573 720 774 762 705 716 758 785 724 785 752 792 798 838 841 849 824 784 677 776 817 829 794 960 1189 1272 1370 1233 1059 1113 1253 1554 1468 1163 983 1218 1364 1123 1353 1327 1372 1553 1774 1877 1939 1923 1761 1873 1888 1784 1706 1776 1446 1037 1047 634 620 613 605 611 590 558 558 558 558 558 558 868 990 1651 1572 1322 1222 1319 826 1132 1388 873 683 564 564 564 564 690 965 1672 1747 1750 1625 1892 2054 2052 2133 2137 2278 2048 1968 2018 1712 1362 1240 1178 865 626 651 872 1349 1473 1746 1945 2051 1607 1440 2085 2348 2488 2676 2512 2685 2544 2721 2888 2458 2742 2912 2625 2395 2326 2384 2399 1813 1003 910 1547 2038 2015 2052 2207 2602 2888 2575 2303 2375 2154 1933 2371 2272 1965 1654 1496 1245 1159 1108 1480 1564 1630 1614 1815 1244 1457 1871 2084 2173 1983 2497 2242 2089 2062 2139 2072 2012 1874 1581 1412 1187 902 915 1284 1474 1302 1735 1827 1974 2235 2117 1891 1407 1675 1987 1893 1699 1470 1218 1102 844 728 836 897 806 855 1085 1326 1243 1225 1422 1535 2160 2412 2054 1841 1677 1744 1684 1637 1393 1267 1279 1492 1632 1871 2146 1981 2248 2474 2569 2308 2520 2727 2370 2335 2883 2560 2728 2868 2968 2746 2792 2986 2871 2781 2349 2213 2035 1511 1527 1808 1661 1675 1805 1997 2035 2170 2461 2310 2699 2631 2615 2661 2794 2705 2357 2246 2701 2642 2216 2401 2505 -9999 -9999 -9999 -9999 -9999 -9999 -9999 -9999 -9999 -9999 -9999 -9999 -9999 -9999 -9999 -9999 -9999 -9999 -9999 -9999 -9999 -9999 -9999 -9999 -9999 -9999
-9999 -9999 -9999 -9999 -9999 -9999 -9999 -9999 -9999 -9999 -9999 -9999 -9999 -9999 -9999 -9999 -9999 -9999 -9999 -9999 -9999 -9999 -9999 -9999 -9999 -9999 -9999 -9999 -9999 -9999 -9999 -9999 -9999 -9999 -9999 -9999 -9999 -9999 -9999 -9999 1198 1209 1162 1146 1038 1090 1331 1095 1062 1145 1106 1108 933 835 733 711 634 557 542 464 443 440 476 512 585 612 607 612 670 673 634 616 615 637 711 775 840 820 750 675 667 567 498 656 643 780 760 752 720 701 805 774 739 834 877 956 982 1017 1139 1019 900 843 677 726 788 754 833 1024 1348 1529 1301 1161 1310 1163 1318 1532 1414 1103 1009 1352 1347 1138 1431 1538 1360 1637 1865 1871 1775 1891 1540 1400 1381 1400 1603 1802 1584 1361 1219 1132 1018 667 606 608 638 621 558 558 558 558 558 676 1314 1317 1212 1041 1151 1145 666 1076 892 597 579 564 564 564 907 1138 1298 2056 1991 1818 1786 1891 2246 2464 2691 2524 2242 2239 2192 1921 1758 1293 1501 1608 1464 955 676 902 1867 2109 2249 2452 2495 2065 1795 1721 2155 2502 3030 3060 2892 2976 3125 2953 2607 2405 2733 2880 2909 2714 2294 2141 1528 951 1151 1944 2283 2267 1954 2393 2915 2753 2763 2142 2049 2121 1718 1968 2068 1776 1493 1338 1173 1098 1435 1889 1979 1994 2122 1919 1315 1367 1724 1993 2491 2316 2627 2423 2229 2172 2281 2122 1903 1778 1503 1327 1040 927 1053 1477 1739 1317 1412 1801 2239 2455 2075 1681 1301 1997 1934 1663 1556 1364 1108 967 899 895 1055 1301 1213 1138 885 1006 952 1276 1341 1395 1844 2020 1792 1579 1488 1635 1503 1269 1132 1158 1612 1868 2105 2058 2441 2016 2178 2676 2674 2489 2771 2678 2671 2524 2894 2553 2732 2860 2724 2798 2697 2586 2505 2526 2297 1997 1621 1591 1837 2044 1751 2152 1693 1868 1933 2023 2077 2369 2485 2252 2374 2718 2589 2777 2709 2578 2817 2593 2117 2328 2474 -9999 -9999 -9999 -9999 -9999 -9999 -9999 -9999 -9999 -9999 -9999 -9999 -9999 -9999 -9999 -9999 -9999 -9999 -9999 -9999 -9999 -9999 -9999 -9999 -9999 -9999
-9999 -9999 -9999 -9999 -9999 -9999 -9999 -9999 -9999 -9999 -9999 -9999 -9999 -9999 -9999 -9999 -9999 -9999 -9999 -9999 -9999 -9999 -9999 -9999 -9999 -9999 -9999 -9999 -9999 -9999 -9999 -9999 -9999 -9999 -9999 -9999 -9999 -9999 -9999 1257 1164 1153 1101 1041 1035 1198 1168 1072 1067 1236 1256 1002 816 811 722 701 620 554 524 477 446 440 524 561 601 620 608 629 675 645 617 637 645 666 729 767 845 824 766 660 574 511 583 729 725 776 774 756 697 713 818 743 780 894 947 992 1079 1067 1014 916 778 722 677 694 766 861 921 1118 1520 1515 1260 1208 1380 1320 1331 1431 1331 1025 1141 1483 1375 1241 1340 1516 1407 1830 1889 1651 1591 1657 1629 1456 1340 1691 1708 1690 1732 1731 1641 1350 1142 803 656 611 626 653 627 558 558 558 558 558 953 848 862 621 852 765 586 564 567 568 569 586 654 786 1366 1620 1878 2133 2026 1901 1932 1883 2097 2529 2614 2409 2107 2027 1916 1621 1431 1561 1817 1988 822 875 897 784 1650 1989 2153 2397 2689 2520 2334 1809 2138 2436 3213 3000 3202 3069 3089 2905 2648 2129 2070 2594 2900 2647 2196 2107 1726 1017 1394 2125 2446 2389 2155 2662 2788 2719 2474 2214 1825 1823 1596 1650 1627 1826 1480 1318 1329 1228 1857 2092 2179 2240 2041 1738 1428 1278 1929 2198 2609 2568 2551 2357 2181 2333 2350 2166 1830 1659 1423 1200 1083 933 1207 1671 1856 2062 1870 1742 2369 2214 1752 1511 1392 1876 1862 1583 1425 1185 1189 1265 1280 1045 832 1382 1902 1491 1203 1010 851 979 1251 1276 1543 1686 1475 1208 1179 1202 1144 1080 1143 1451 2035 2221 2433 2495 2506 2315 2533 2525 2615 2858 2452 2529 2608 2723 2670 2263 2243 2607 2748 2707 2561 2625 2425 2189 1867 1675 1568 1920 2181 2124 1822 2409 2414 1688 1869 2071 1921 2134 2068 2140 2125 2563 2744 2331 2641 2859 2597 2418 2146 2382 2620 -9999 -9999 -9999 -9999 -9999 -9999 -9999 -9999 -9999 -9999 -9999 -9999 -9999 -9999 -9999 -9999 -9999 -9999 -9999 -9999 -9999 -9999 -9999 -9999 -9999 -9999
-9999 -9999 -9999 -9999 -9999 -9999 -9999 -9999 -9999 -9999 -9999 -9999 -9999 -9999 -9999 -9999 -9999 -9999 -9999 -9999 -9999 -9999 -9999 -9999 -9999 -9999 -9999 -9999 -9999 -9999 -9999 -9999 -9999 -9999 -9999 -9999 -9999 -9999 1401 1202 1110 1106 1040 1038 1024 1136 1089 1083 1156 1219 972 881 766 732 668 623 579 536 515 468 449 440 561 588 610 621 611 662 661 630 648 662 646 704 743 764 798 817 736 530 514 634 697 774 756 815 783 740 701 726 806 763 830 901 940 984 1031 988 891 844 738 677 677 724 822 1031 1164 1397 1483 1516 1519 1464 1373 1406 1497 1426 1286 1042 1327 1454 1444 1350 1400 1663 1585 1835 1863 1836 1752 1153 1221 1160 1574 1694 1687 1558 1353 1484 1324 1462 1351 1179 682 628 636 639 690 605 561 558 558 558 558 558 558 558 558 561 563 573 580 574 576 743 1093 1284 1783 2186 2042 2174 2192 2383 2421 2099 2309 2465 2511 2235 2079 2023 1609 1444 1394 1945 2319 1539 870 1225 1489 919 1248 1415 2020 2155 2380 2463 2433 2169 2229 2595 3148 2955 2546 2690 2771 3054 2841 2464 2219 2087 2620 2364 2058 2074 1718 1052 1539 2288 2456 2590 2311 2655 2405 2708 1975 2086 1720 1472 1417 1364 1327 1340 1276 1271 1550 1289 1541 1875 2191 2386 2166 1897 1832 1519 1582 1915 2397 2662 2523 2351 2314 2189 2135 2014 1687 1447 1331 1453 1782 1002 1347 1830 1954 2277 2066 2061 2224 2036 1592 1371 1869 1620 1915 1741 1555 1452 1584 1738 1632 1351 915 1335 1711 1577 1364 1361 1290 966 960 1076 1190 1170 1098 1028 1083 973 967 1040 1034 1597 2155 2280 2257 2415 2553 2460 2349 2489 2711 2630 2357 2673 2567 2386 2445 2543 2157 2388 2550 2749 2726 2274 2410 2184 1646 1575 1922 2007 2127 2259 1901 2331 2492 1890 1742 1934 1802 1805 1868 1901 1986 2363 2669 2193 2470 2695 2464 2310 2368 2255 2537 2697 -9999 -9999 -9999 -9999 -9999 -9999 -9999 -9999 -9999 -9999 -9999 -9999 -9999 -9999 -9999 -9999 -9999 -9999 -9999 -9999 -9999 -9999 -9999 -9999 -9999
-9999 -9999 -9999 -9999 -9999 -9999 -9999 -9999 -9999 -9999 -9999 -9999 -9999 -9999 -9999 -9999 -9999 -9999 -9999 -9999 -9999 -9999 -9999 -9999 -9999 -9999 -9999 -9999 -9999 -9999 -9999 -9999 -9999 -9999 -9999 -9999 -9999 1400 1281 1114 1084 1043 1004 1004 1099 1219 1125 1181 1187 1092 868 809 720 690 622 590 554 491 469 497 556 463 587 593 606 617 630 649 656 646 645 670 655 723 764 760 766 764 647 526 615 720 717 817 837 809 745 717 730 760 758 829 899 941 956 999 965 933 864 808 714 721 677 773 890 1142 1289 1335 1344 1330 1303 1395 1356 1480 1378 1104 1050 1332 1578 1678 1394 1379 1460 1848 1886 1831 1767 1469 1296 1095 1122 1150 1230 1268 1193 1188 1058 1011 928 830 777 686 770 669 673 650 758 690 631 558 558 558 558 558 558 558 558 558 560 633 578 580 729 1087 1387 1761 2080 2140 2300 2450 2464 2451 2317 2359 2383 2184 2236 2126 1855 1731 1562 1852 1971 1914 2483 1362 1160 1596 1762 1328 887 951 1564 1928 2158 2935 2903 2566 2473 2590 3073 3176 2609 2201 2437 2680 3020 2616 2354 1816 1839 2080 1698 1622 1269 1091 1455 1961 2274 2562 2465 2405 2148 2284 1974 1795 1580 1404 1523 1477 1450 1481 1660 1617 1448 1292 1537 1949 2268 2636 2385 1991 2149 2013 1355 1537 2159 2451 2481 2182 2222 2137 1923 1560 1260 1460 1616 1772 1939 1556 1092 1597 1747 2307 2290 2403 2031 1849 1427 1723 2150 1770 1855 2006 1925 1834 2011 2069 1754 1414 1102 1497 2015 1811 1704 1771 1594 1286 965 878 929 956 927 948 983 1071 1248 1421 1317 1287 1773 1778 1949 2191 2188 2182 2354 2295 2262 2048 2373 2858 2503 2648 2791 2728 2347 1916 2033 2356 2490 2529 2040 1868 1593 1756 2114 2278 2269 2307 2024 2232 2558 2073 1689 1747 1863 2051 2095 2035 1937 2019 2140 2279 2453 2293 2345 2403 2277 2245 2437 2637 -9999 -9999 -9999 -9999 -9999 -9999 -9999 -9999 -9999 -9999 -9999 -9999 -9999 -9999 -9999 -9999 -9999 -9999 -9999 -9999 -9999 -9999 -9999 -9999 -9999
-9999 -9999 -9999 -9999 -9999 -9999 -9999 -9999 -9999 -9999 -9999 -9999 -9999 -9999 -9999 -9999 -9999 -9999 -9999 -9999 -9999 -9999 -9999 -9999 -9999 -9999 -9999 -9999 -9999 -9999 -9999 -9999 -9999 -9999 -9999 -9999 1385 1252 1111 1112 1039 1004 1004 1017 1230 1373 1248 1125 1093 938 805 759 678 633 607 570 537 525 496 476 453 494 595 588 600 603 616 637 637 643 672 669 704 758 762 767 706 641 648 586 660 741 730 802 820 791 725 744 779 784 778 843 886 941 939 951 953 952 886 809 710 753 680 782 923 1250 1309 1168 1207 1132 1076 1145 1256 1478 1400 1384 1228 1470 1786 1961 1913 1926 1787 1908 1356 1138 1005 1072 983 869 817 914 858 871 845 796 772 724 710 660 661 721 845 952 936 765 716 822 790 682 674 558 558 558 558 558 558 558 1106 696 599 823 1164 1538 1914 1902 1925 2123 2353 2225 2191 2493 2339 2114 2062 2023 1866 1871 1876 1750 1789 2559 2381 2321 2385 1469 1386 1913 2058 1739 1394 1084 1120 1584 1968 2424 2793 2775 2746 2730 2997 3065 2717 2208 1986 2336 2574 2520 2413 2169 1599 1404 1280 1281 1495 1547 1759 2228 2405 2292 2128 2072 2131 1985 1900 1655 1536 1830 1961 1577 1835 1689 1891 1882 1591 1334 1895 2039 2240 2638 2477 2438 2386 2045 1603 1448 2165 2486 2573 2303 2191 2103 1850 1453 1606 1608 2200 2041 1962 1662 1128 1849 2115 2550 2677 2298 1873 1719 1610 1852 2465 1962 2113 2652 2458 2246 2114 1887 1595 1438 999 1351 2134 2090 2067 1908 1720 1458 1191 968 1100 1189 1377 1268 1464 1419 1719 1678 1715 1260 1286 1504 2020 2073 1989 2012 1886 1826 1862 2062 2186 2599 2580 2703 2880 2743 2504 2279 2086 1830 1943 2271 2204 1701 1743 1913 2426 2476 2521 2442 2387 2050 2557 2319 1712 1777 2092 2336 2445 2363 2221 2019 2078 2207 2083 2024 2106 2188 2036 2142 2581 2735 -9999 -9999 -9999 -9999 -9999 -9999 -9999 -9999 -9999 -9999 -9999 -9999 -9999 -9999 -9999 -9999 -9999 -9999 -9999 -9999 -9999 -9999 -9999 -9999 -9999
-9999 -9999 -9999 -9999 -9999 -9999 -9999 -9999 -9999 -9999 -9999 -9999 -9999 -9999 -9999 -9999 -9999 -9999 -9999 -9999 -9999 -9999 -9999 -9999 -9999 -9999 -9999 -9999 -9999 -9999 -9999 -9999 -9999 -9999 -9999 1343 1278 1157 1102 1070 1004 1004 1137 1291 1308 1347 1279 1063 1006 871 755 711 631 618 620 543 560 559 546 494 445 563 579 581 586 590 607 626 637 661 684 691 735 758 784 775 693 667 588 577 611 681 692 823 811 799 821 799 825 814 805 807 822 873 911 961 997 985 851 759 718 720 677 762 924 1270 1132 1009 995 975 1121 1115 1375 1675 1700 1410 1532 1544 1924 1828 1694 1824 1663 1526 1418 1092 899 908 996 1134 1074 1018 1161 1212 1174 1014 797 880 762 820 888 1035 1312 1461 1657 1257 703 845 889 858 869 777 591 583 710 749 788 947 1293 849 763 743 1145 1827 1807 1655 1791 1810 1895 1951 1862 2011 1995 2100 1870 1811 1669 1748 1959 1876 2421 2825 2662 2552 2228 1693 1499 2089 2472 2271 1775 1397 1072 1274 1651 2403 2806 3075 2952 2856 3137 3334 3066 2610 2378 1898 1952 2087 2018 1654 1538 1679 1788 1877 1678 1847 2114 2288 2153 2021 2345 2210 2020 1822 1606 1647 1945 2230 2011 1758 2133 1861 2388 2234 1550 1528 2187 1995 2166 2515 2414 2186 2182 2173 2063 2024 1964 2387 2455 2004 1923 1853 1648 1452 2105 1891 2324 2484 2217 1971 1218 1933 2028 2377 2652 2335 1863 1652 2007 2069 2581 2384 2474 2553 2393 2101 1991 1728 1345 1175 1079 1370 1919 2266 2255 1957 1861 1602 1488 1130 1205 1575 1686 1675 1914 1653 1901 1848 1889 2321 1653 1444 1580 1655 1592 1640 1896 2107 2181 2113 2303 2640 2667 2764 2807 2689 2334 2627 2457 2064 1810 1736 1710 1624 1921 2243 2705 2737 2686 2606 2367 2037 2408 2336 2066 1739 1911 2134 2300 2117 2440 2206 2261 2382 2347 1860 1719 1692 1849 2021 2378 2432 2519 2144 1904 1276 1220 -9999 -9999 -9999 -9999 -9999 -9999 -9999 -9999 -9999 -9999 -9999 -9999 -9999 -9999 -9999 -9999 -9999 -9999 -9999 -9999
-9999 -9999 -9999 -9999 -9999 -9999 -9999 -9999 -9999 -9999 -9999 -9999 -9999 -9999 -9999 -9999 -9999 -9999 -9999 -9999 -9999 -9999 -9999 -9999 -9999 -9999 -9999 -9999 -9999 -9999 -9999 -9999 -9999 -9999 1379 1254 1210 1126 1049 1004 1004 1043 1337 1369 1395 1290 1358 1078 994 805 710 657 636 620 591 541 575 569 566 442 507 552 571 588 590 591 600 642 657 714 718 761 798 854 839 800 711 622 643 660 670 663 683 809 846 759 843 877 913 848 820 815 814 838 859 947 975 914 753 741 740 714 677 764 955 1408 1145 950 970 1171 1386 1320 1319 1764 1630 1673 1712 1705 2019 1992 1843 1563 1735 1359 1106 890 842 1054 1145 1224 1369 1258 1528 1550 1518 1322 1357 887 909 1269 1647 1656 1796 1879 1768 1543 1100 714 872 977 1037 1028 918 889 896 1093 1304 1640 1099 1277 1033 670 814 1451 1349 1307 1319 1400 1268 1727 1665 1581 1539 1766 1605 1489 1492 1586 2441 3122 2877 2952 2917 2632 2396 1805 1498 1815 2482 2674 1943 1889 1619 1173 1575 2644 2672 2869 3070 2982 3191 3244 3528 2829 2560 2179 1838 1792 1792 1816 2036 2226 2342 2324 1806 1615 1880 1930 1926 2320 2521 2381 2115 2333 1941 2234 2563 2165 1908 2242 2454 2389 2274 2009 1495 1597 1966 2175 2141 2603 2634 2397 2527 2664 2614 2601 2086 2276 2430 2223 1991 1645 1582 1658 1970 2435 2358 2593 2288 1943 1251 2128 2087 2205 2481 2300 1845 1689 2195 2623 2641 2548 2570 2311 2213 1962 1800 1565 1139 961 1142 1374 1803 2246 2334 2048 1959 1692 1569 1333 1242 1666 2104 2000 2359 2239 2301 2263 2027 2364 2156 1621 1369 1435 1778 2021 2346 2491 2590 2111 2385 2885 2849 2909 2900 2751 2565 2642 2648 2272 2118 1846 1712 1674 2168 2398 2889 2736 2855 2682 2335 2178 2583 2421 2172 2037 1756 1793 1929 2065 -9999 2249 2336 2711 2613 2078 1960 1785 1674 1786 1978 2083 2198 1884 1668 1252 1368 1916 2289 -9999 -9999 -9999 -9999 -9999 -9999 -9999 -9999 -9999 -9999 -9999 -9999 -9999 -9999 -9999 -9999 -9999 -9999
-9999 -9999 -9999 -9999 -9999 -9999 -9999 -9999 -9999 -9999 -9999 -9999 -9999 -9999 -9999 -9999 -9999 -9999 -9999 -9999 -9999 -9999 -9999 -9999 -9999 -9999 -9999 -9999 -9999 -9999 -9999 -9999 -9999 1292 1230 1201 1151 1060 1004 1004 1152 1248 1378 1420 1398 1310 1328 1012 787 738 666 653 630 622 588 551 600 578 522 460 493 510 572 598 600 595 608 666 664 734 740 810 816 866 883 851 726 733 681 725 645 657 690 747 847 779 846 898 942 879 850 832 828 837 846 875 831 787 765 760 750 722 677 771 944 1265 898 879 1053 1160 1473 1490 1416 1816 1748 1812 1561 1742 1645 1802 1537 1250 1298 1001 867 883 1072 1319 1335 1578 1554 1712 1946 1864 1653 1476 1177 905 1026 1400 1757 2012 2081 1919 1499 1436 956 719 837 1048 1203 1123 1370 1433 1494 1661 1644 1208 1472 1970 1762 1556 1379 669 1104 1257 752 785 931 980 1114 1211 1298 1439 1347 1294 1364 1609 2892 3282 3434 3135 3096 2742 2496 2170 1889 1994 2007 2407 2686 2515 2062 1194 1676 2441 2473 2798 3257 3124 3037 3156 3355 2802 2569 2483 2822 2531 2751 2719 2540 2424 2093 1845 1438 1614 1660 1633 1648 2323 2613 2546 2272 2423 1956 2174 2465 2188 1908 2387 2567 2491 1976 1674 1716 1999 2263 2394 2562 2912 2980 2493 2669 2865 2935 2732 2259 2208 2437 1993 1884 2124 1829 1845 2105 2604 2603 2620 2057 1773 1263 2139 2383 2515 2596 2237 1831 1692 2364 2874 2636 2543 2463 2294 2158 1828 1687 1358 1031 946 1472 1829 2147 2249 2445 2158 2076 1829 1697 1361 1129 1389 2025 2203 2634 2551 2462 2472 2309 2481 2314 2006 1496 1433 1854 2085 2495 2590 2679 2174 2339 2762 3143 2957 2735 2861 2747 2733 2403 2084 2041 1726 1648 1923 2433 2600 2708 2520 2732 2978 2663 2466 2837 2785 2563 1840 -9999 -9999 1797 -9999 -9999 2315 2312 2632 2666 2433 2300 2036 1722 1618 1671 1749 1912 1566 1359 1389 1636 2186 2341 -9999 -9999 -9999 -9999 -9999 -9999 -9999 -9999 -9999 -9999 -9999 -9999 -9999 -9999 -9999 -9999 -9999 -9999
-9999 -9999 -9999 -9999 -9999 -9999 -9999 -9999 -9999 -9999 -9999 -9999 -9999 -9999 -9999 -9999 -9999 -9999 -9999 -9999 -9999 -9999 -9999 -9999 -9999 -9999 -9999 -9999 -9999 -9999 -9999 1358 1295 1221 1197 1092 1011 1009 1154 1101 1289 1341 1394 1441 1446 1315 1166 890 727 690 659 651 630 619 587 593 599 575 522 482 500 518 594 606 599 603 623 670 701 739 763 830 833 849 895 822 738 738 694 736 698 613 644 720 835 795 863 924 911 907 888 854 848 827 806 797 800 795 784 767 758 714 677 740 945 979 838 880 981 1143 1490 1481 1629 1830 1805 1518 1347 1292 1509 1618 1603 1380 1020 835 889 1279 1385 1591 1487 1672 1709 1742 1654 1620 1712 1152 998 1034 1191 1533 1870 2170 1811 1615 1244 1181 763 769 901 1182 1316 1515 1122 1250 1865 2025 1565 1384 1733 2242 2026 1685 1460 753 1574 1797 2064 1959 1729 1433 1247 1005 973 972 1003 1348 2177 1768 2182 2610 3199 3279 3089 2769 2695 2722 2332 2067 2315 2590 2754 2465 2169 1341 1452 2045 1902 2472 2959 2880 2864 2860 3241 3030 2891 2779 2692 2743 2686 2417 2059 1919 1655 1522 1610 2083 2122 2137 1929 1882 2295 2679 2264 2213 2031 2122 2562 2168 1967 2578 2781 2410 1705 1759 1682 2153 2556 2714 2866 3043 2975 2640 2686 2601 2611 2488 2225 2293 2488 2261 2239 2129 1806 1974 2231 2766 2512 2314 1882 1607 1358 1932 2222 2716 2589 2243 2031 1703 2501 2883 2490 2356 2238 2106 2103 1892 1586 1305 1009 1012 1633 2078 2275 2273 2611 2265 2144 1814 1653 1349 1143 1235 1802 1955 2424 2678 2567 2590 2380 2779 2623 2311 1914 1500 1846 1921 2101 2478 2615 2349 2435 2897 2968 2804 2543 2579 2499 2379 2077 1817 1707 1703 1789 1815 2067 2142 2173 2329 2656 2798 2616 2757 2860 2476 -9999 -9999 -9999 -9999 -9999 -9999 -9999 -9999 2228 2384 2590 2703 2532 2267 1974 1810 1625 1577 1491 1363 1365 1649 1916 2252 2433 -9999 -9999 -9999 -9999 -9999 -9999 -9999 -9999 -9999 -9999 -9999 -9999 -9999 -9999 -9999 -9999 -9999 -9999
-9999 -9999 -9999 -9999 -9999 -9999 -9999 -9999 -9999 -9999 -9999 -9999 -9999 -9999 -9999 -9999 -9999 -9999 -9999 -9999 -9999 -9999 -9999 -9999 -9999 -9999 -9999 -9999 -9999 -9999 1373 1249 1214 1140 1095 1055 1024 1125 1288 1303 1337 1391 1436 1578 1545 1257 1077 820 698 665 655 645 630 594 580 587 595 556 541 445 509 519 600 605 594 617 649 692 715 743 799 817 856 860 842 810 734 728 701 722 695 588 728 798 820 837 866 897 912 898 878 846 845 846 843 860 835 822 789 765 745 734 698 723 865 810 876 905 892 1060 1283 1418 1698 1490 1343 1079 1059 1103 1382 1711 1615 1421 1072 838 1039 1373 1452 1746 1802 1818 1557 1365 1349 1437 1126 1055 1144 1163 1358 1602 2044 2077 1654 1418 1111 839 728 817 958 1455 1704 1721 1341 1555 1555 1799 1818 1544 1928 2159 2055 1560 1283 793 1373 1595 2156 2011 1817 1511 1354 1228 1157 1117 1100 2017 2761 2525 2452 2658 3036 3370 3232 2844 2624 2454 2215 2147 2603 2894 2625 2420 1780 1450 1424 1889 2099 2454 2884 2663 2771 2828 3276 2830 2683 2500 2382 2243 2272 2033 1670 1536 1618 1733 1919 2246 2412 2467 2311 1774 1959 2420 2278 2396 2190 2133 2690 2082 2246 2774 2855 2309 1697 2043 1701 1876 2730 2937 3002 2944 2555 2210 2375 2384 2334 2291 2335 2425 2609 2356 2075 1987 1723 2261 2611 2701 2287 2086 1631 1393 1512 2165 2083 2302 2387 2200 2035 1738 2362 2703 2581 2432 2253 2022 1921 1853 1862 1428 961 1030 1793 1990 2303 2521 2577 2141 1966 1789 1703 1478 1176 1227 1570 1855 2370 2439 2468 2666 2636 3007 2850 2628 2119 1638 2278 2433 2528 2473 2571 2628 2575 2953 2861 2604 2289 2309 2287 2109 1854 1674 1695 1929 2183 1946 1887 1984 2265 2167 2413 2835 -9999 -9999 -9999 -9999 -9999 -9999 -9999 -9999 -9999 -9999 -9999 2279 2165 2081 2184 2445 2613 2482 2203 2061 1826 1792 1539 1482 1548 1993 2276 2357 2610 -9999 -9999 -9999 -9999 -9999 -9999 -9999 -9999 -9999 -9999 -9999 -9999 -9999 -9999 -9999 -9999 -9999 -9999
-9999 -9999 -9999 -9999 -9999 -9999 -9999 -9999 -9999 -9999 -9999 -9999 -9999 -9999 -9999 -9999 -9999 -9999 -9999 -9999 -9999 -9999 -9999 -9999 -9999 -9999 -9999 -9999 -9999 1332 1264 1243 1175 1100 1091 1020 1198 1311 1360 1335 1413 1555 1594 1451 1380 1231 1121 744 682 669 663 660 622 599 587 568 560 538 525 421 500 509 600 601 593 637 658 702 717 747 793 817 879 892 868 828 731 739 708 712 669 603 749 782 785 836 902 905 820 839 842 884 963 952 963 925 887 858 811 745 732 722 695 736 811 913 953 1241 1194 1072 894 1283 1196 1007 1000 1204 1186 1128 1388 1671 1563 1463 1129 851 1104 1495 1585 1897 1708 1537 1388 1535 1350 1122 1224 1322 1488 1255 1505 1973 2211 1972 1499 1299 818 757 869 921 911 1421 1644 1727 1842 2084 1755 1603 2131 1832 2247 2172 1883 1707 1637 849 1239 1387 2196 2122 1820 1614 1498 1501 1540 1768 1712 1886 2846 2930 3178 3030 3017 3032 3202 2941 2768 2408 2331 2404 2888 2734 2423 2343 2318 1788 1475 1928 2396 2688 2773 2605 2712 2954 2995 2792 2629 2372 2483 2118 1891 1562 1635 1746 2062 1807 2142 2507 2622 2677 2564 2240 1931 2432 2324 2465 2383 2164 2649 2180 2544 2675 2586 2242 1804 2201 1997 1723 2363 2620 2762 2728 2442 1990 2397 2665 2578 2424 2267 2600 2748 2748 2236 1782 1960 2442 2689 2439 2084 1870 1451 1472 1563 2140 2381 2312 2531 2243 2144 1810 2141 2471 2538 2414 2356 2284 2226 2075 1933 1368 1022 1228 2089 2208 2266 2359 2545 2054 2049 2006 1885 1575 1249 1190 1450 1766 2125 2041 2481 2548 2523 2714 2828 2508 2097 1776 1887 2038 2340 2471 2789 2956 2906 2654 2545 2477 2458 2256 2065 1925 1707 1767 1938 2225 2501 2245 2044 2379 2698 2607 2324 2698 -9999 -9999 -9999 -9999 -9999 -9999 -9999 -9999 -9999 -9999 -9999 2067 2508 2472 2273 2208 2509 2810 2714 2430 2127 1938 1757 1841 1799 2227 2489 2698 2757 -9999 -9999 -9999 -9999 -9999 -9999 -9999 -9999 -9999 -9999 -9999 -9999 -9999 -9999 -9999 -9999 -9999 -9999
-9999 -9999 -9999 -9999 -9999 -9999 -9999 -9999 -9999 -9999 -9999 -9999 -9999 -9999 -9999 -9999 -9999 -9999 -9999 -9999 -9999 -9999 -9999 -9999 -9999 -9999 -9999 -9999 1306 1238 1231 1203 1165 1111 1031 1132 1345 1392 1340 1344 1515 1530 1497 1406 1359 1089 870 700 670 669 679 676 618 599 586 545 543 534 477 427 475 510 598 586 590 639 684 698 706 768 799 846 875 910 879 839 773 732 739 702 668 619 738 745 818 869 884 792 851 840 846 1000 1128 1295 1172 1055 1138 1215 911 734 716 697 689 905 1082 1387 1099 1078 1501 1353 993 1053 1052 1121 1386 1346 1478 1492 1208 1350 1526 1491 1154 944 1158 1517 1756 2010 1594 1679 1642 1757 1166 1198 1675 1533 1484 1433 1611 2057 2021 1707 1236 1041 773 764 1045 1339 1035 1138 1246 1612 2258 2250 1850 1856 2269 2439 2382 1910 1768 2017 1642 952 1217 1398 2240 2222 1922 1713 1686 1884 2004 2566 2137 1582 2233 2414 3211 3540 3245 2773 2669 3128 2965 2696 2802 2743 2904 2773 2595 2583 2598 2309 1950 1744 2173 2718 2784 2534 2702 2931 2695 2604 2470 2212 2267 1884 1629 1762 2063 2175 2088 1762 2142 2733 2734 2608 2461 2339 2078 2303 2398 2571 2491 2252 2712 2424 2705 2535 2462 1861 1830 2392 2238 1941 2103 2164 2366 2650 2515 1841 2124 2498 2380 2143 2201 2318 2686 2778 2398 2132 2215 2658 2708 2369 1920 1665 1753 1890 1810 1671 2387 2478 2571 2305 2163 1904 2457 2736 2487 2327 2240 2142 2109 2031 2014 1499 1101 1513 2210 2454 2489 2470 2479 2217 2358 2219 2060 1588 1448 1315 1221 1516 1849 1779 1933 2123 2242 2880 2803 2370 2215 2002 1811 1851 2162 2363 2679 2497 2406 2315 2314 2198 2177 2204 1860 1727 1719 2195 2389 2437 2671 2272 2330 2256 2444 2764 2703 2793 -9999 -9999 -9999 -9999 -9999 -9999 -9999 -9999 -9999 -9999 -9999 2209 2762 2759 2783 2148 2182 2532 2669 2417 1986 1849 2208 2379 2260 2342 2407 2580 2711 -9999 -9999 -9999 -9999 -9999 -9999 -9999 -9999 -9999 -9999 -9999 -9999 -9999 -9999 -9999 -9999 -9999 -9999
-9999 -9999 -9999 -9999 -9999 -9999 -9999 -9999 -9999 -9999 -9999 -9999 -9999 -9999 -9999 -9999 -9999 -9999 -9999 -9999 -9999 -9999 -9999 -9999 -9999 -9999 -9999 -9999 1261 1238 1237 1192 1157 1036 1201 1249 1335 1338 1340 1353 1512 1477 1429 1370 1242 828 712 689 673 671 662 664 614 592 574 548 527 483 449 410 469 489 564 577 587 620 655 702 746 820 821 821 863 894 873 796 823 737 750 709 661 623 700 733 836 835 783 843 850 848 898 1167 1256 1306 1070 1037 1301 1304 1049 822 764 729 706 1105 1443 1558 1242 1063 1468 1293 1145 1376 1309 1287 1668 1506 1713 1443 1308 1341 1521 1408 1081 921 1022 1515 1844 1855 1724 1825 1799 1800 1165 1334 1777 1773 1506 1594 1943 2035 1734 1547 1026 874 779 1061 1296 1581 1302 947 1001 1801 2113 1875 2075 2161 2394 2543 2458 2013 2136 1947 1678 1212 1275 1531 2223 2199 1941 1998 2056 2633 2863 2727 2258 1652 1895 2066 2907 3308 3700 2977 2643 2572 2876 3040 3088 3057 2978 2938 2619 2413 2276 2197 2111 1767 2010 2652 2657 2413 2492 2827 2555 2372 2053 1924 1901 1772 1632 2123 2341 2496 2034 1838 2178 2454 2593 2627 2453 2176 2113 2281 2521 2689 2577 2376 2692 2624 2515 2212 2245 1908 2234 2626 2472 2079 2296 2207 2531 2617 2233 1573 1782 2241 2231 1955 1913 2073 2428 2722 2618 2345 2463 2734 2546 2083 1718 1846 2194 2266 2006 1760 2282 2651 2676 2467 2430 2507 2505 2524 2703 2505 2078 1773 1794 2047 1915 1451 1157 1452 2015 2072 2257 2421 2484 2428 2542 2214 2032 1599 1571 1652 1260 1232 1548 1743 2021 2137 2156 2627 2814 2534 2492 2092 2390 2136 2087 2073 2274 2369 2414 2429 2430 2491 2083 1720 1766 1752 2407 2674 2724 2663 2744 2539 2467 2568 2307 2563 2848 2739 -9999 -9999 -9999 -9999 -9999 -9999 -9999 -9999 -9999 -9999 -9999 -9999 -9999 -9999 2816 2334 2313 2230 2253 2207 2324 2224 2719 2836 2392 2178 2709 2641 2747 -9999 -9999 -9999 -9999 -9999 -9999 -9999 -9999 -9999 -9999 -9999 -9999 -9999 -9999 -9999 -9999 -9999 -9999
-9999 -9999 -9999 -9999 -9999 -9999 -9999 -9999 -9999 -9999 -9999 -9999 -9999 -9999 -9999 -9999 -9999 -9999 -9999 -9999 -9999 -9999 -9999 -9999 -9999 -9999 -9999 -9999 -9999 1204 1192 1089 1040 1151 1277 1314 1367 1342 1342 1445 1467 1361 1369 1126 910 734 691 687 686 682 670 673 611 549 538 501 497 482 439 404 464 483 522 557 579 622 669 722 752 817 842 848 859 871 832 828 829 774 742 705 644 612 700 757 775 747 842 833 820 872 943 1153 1297 1221 1072 1104 1307 1237 1002 945 833 709 756 991 1574 1664 1162 1329 1665 1350 1436 1830 1815 1507 1477 1712 1495 1244 1480 1589 1560 1332 1192 1018 930 1589 1738 1837 1812 1770 1416 1297 1261 1552 1993 1807 1654 1607 2006 2174 1495 1312 976 841 781 1176 1406 1815 1544 1137 979 1300 1577 1687 2077 1978 2350 2499 2342 2247 2561 2066 1845 1313 1492 1722 2021 1987 2149 2563 3062 3471 3050 2685 2300 2091 2372 2486 2605 3086 3441 3197 2831 2480 2457 2706 2809 2917 2744 2742 2792 2705 2553 2482 2342 1841 1862 2566 2398 2253 2463 2606 2488 2215 2274 2280 2194 1895 1764 2333 2509 2380 2089 1986 2578 2457 2629 2796 2644 2307 2320 2559 2576 2760 2528 2616 2659 2756 2562 2172 1991 2019 2360 2879 2486 2350 2574 2504 2410 2431 2161 1461 1556 2182 1928 1738 1970 2091 2537 2740 2859 2580 2708 2512 2205 1860 2065 2486 2590 2440 1881 1933 2278 2653 2605 2536 2400 2350 2133 2106 2454 2330 1766 1597 1403 1410 1549 1337 1396 1263 1786 2100 2358 2377 2577 2523 2394 2127 1991 1656 1830 1958 1496 1297 1640 1892 2083 2406 2284 2388 2683 2739 2614 2279 2645 2589 2398 2321 2495 2586 2584 2063 2193 2120 1853 1704 2106 1950 2227 2457 2634 2774 2695 2721 2593 2717 2517 2644 2646 -9999 -9999 -9999 -9999 -9999 -9999 -9999 -9999 -9999 -9999 -9999 -9999 -9999 -9999 -9999 -9999 2386 2660 2452 2482 2666 2694 2682 2820 2915 2483 2305 2741 2737 -9999 -9999 -9999 -9999 -9999 -9999 -9999 -9999 -9999 -9999 -9999 -9999 -9999 -9999 -9999 -9999 -9999 -9999 -9999
-9999 -9999 -9999 -9999 -9999 -9999 -9999 -9999 -9999 -9999 -9999 -9999 -9999 -9999 -9999 -9999 -9999 -9999 -9999 -9999 -9999 -9999 -9999 -9999 -9999 -9999 -9999 -9999 -9999 -9999 1163 1045 1159 1250 1322 1346 1313 1336 1433 1452 1363 1308 1224 848 778 709 690 703 685 681 675 629 607 530 525 499 520 462 468 428 459 481 475 527 558 621 653 725 769 779 852 855 866 869 868 853 814 782 787 693 634 630 649 712 750 827 841 811 822 894 1022 1287 1390 1232 1253 1297 1335 1343 1163 1089 897 712 710 1042 1618 1610 1274 1592 1554 1515 1422 1742 1636 1588 1770 1750 1331 1567 1619 1778 1477 1358 1279 947 998 1372 1487 1771 1853 1930 1652 1281 1367 1586 1952 1997 2022 1547 1926 1951 1492 1242 881 893 794 1162 1378 1985 1638 1387 1150 1580 1452 1446 1535 1614 2136 2398 2328 2528 2471 2191 1900 1058 1338 1644 1712 1825 2200 2802 3298 3199 2928 2737 2485 2472 2909 2783 2612 2975 2981 3358 3268 2622 2421 2341 2282 2330 2146 2147 2258 2343 2430 2084 1916 1909 1909 2403 1882 1831 2128 2178 2468 2364 2643 2498 2384 1911 1937 2399 2459 2367 2018 2048 2428 2564 2578 2609 2706 2413 2528 2385 2394 2553 2586 2660 2556 2600 2530 2110 1908 2093 2494 2990 2643 2645 2605 2354 2052 2123 2029 1344 1366 1951 1825 1593 2198 2384 2819 2610 2015 2145 2083 1850 2026 2430 2407 2597 2447 2213 2071 2250 2652 2462 2363 2309 2401 2445 2232 2000 1848 1735 1458 1423 1533 1510 1588 1729 1786 1321 1781 2086 2541 2553 2693 2540 2317 1999 1882 2008 2211 2153 1694 1427 1711 1891 2250 2319 2546 2285 2540 2747 2589 2636 2809 2694 2378 2121 2529 2331 2051 1817 1814 1728 1701 1888 2434 2382 2016 2035 2180 2620 2743 2821 2741 2753 2529 2697 -9999 -9999 -9999 -9999 -9999 -9999 -9999 -9999 -9999 -9999 -9999 -9999 -9999 -9999 -9999 -9999 -9999 2676 2703 2866 2824 2443 -9999 2709 2789 2655 2573 2399 2882 2839 -9999 -9999 -9999 -9999 -9999 -9999 -9999 -9999 -9999 -9999 -9999 -9999 -9999 -9999 -9999 -9999 -9999 -9999 -9999
-9999 -9999 -9999 -9999 -9999 -9999 -9999 -9999 -9999 -9999 -9999 -9999 -9999 -9999 -9999 -9999 -9999 -9999 -9999 -9999 -9999 -9999 -9999 -9999 -9999 -9999 -9999 -9999 -9999 -9999 1060 1246 1276 1343 1377 1317 1320 1390 1368 1257 1237 1132 968 772 734 704 705 719 687 681 656 617 594 509 510 520 521 467 465 457 404 403 417 460 530 615 625 689 749 774 834 825 828 869 888 842 796 782 757 689 642 630 638 686 777 832 816 837 833 964 1152 1422 1364 1218 1379 1440 1514 1373 1472 1240 985 717 724 1147 1708 1601 1429 1668 1990 1776 1381 1805 1774 1917 1859 1558 1546 1784 1801 1727 1652 1601 1194 934 1005 1479 1602 1953 2010 2065 1367 1325 1282 1817 1863 2185 2207 1644 1917 1736 1275 1106 1026 1232 809 1140 1432 1962 1938 1542 1252 1444 1810 1758 1795 2122 2394 2564 2622 2526 2382 1884 1808 869 1565 1538 1700 1826 2522 3145 3473 3498 3458 3260 2887 2698 3203 3034 2651 2855 3035 2865 3198 2722 2441 2483 2264 2226 2151 2112 2018 1915 1909 2031 2241 2232 2153 1966 1911 2136 2472 2337 2737 2675 2577 2284 2121 2191 2063 2558 2389 2145 2089 2108 2525 2522 2296 2493 2602 2277 2166 1948 2461 2475 2378 2375 2442 2313 2321 2072 2145 1943 2150 2724 2663 2527 2272 2100 1753 1598 1613 1254 1364 1748 1970 2227 2152 2361 2750 2389 2322 2424 2304 2002 2019 2706 2671 2544 2119 2061 2418 2462 2449 2174 2056 1986 2113 2086 1773 1738 1503 1461 1625 1702 2036 1760 1785 2126 1860 1322 1752 1932 2318 2484 2573 2501 2173 1911 1844 2352 2599 2046 1619 1421 1787 2048 2425 2560 2828 2504 2515 2965 2898 2811 2262 2281 2565 2703 2775 2724 2365 2220 2041 1704 1705 2076 2508 2578 2418 2383 2170 2061 2433 2502 2634 2810 2744 2528 -9999 -9999 -9999 -9999 -9999 -9999 -9999 -9999 -9999 -9999 -9999 -9999 -9999 -9999 -9999 -9999 -9999 -9999 -9999 -9999 -9999 -9999 -9999 -9999 -9999 -9999 -9999 -9999 2748 -9999 -9999 -9999 -9999 -9999 -9999 -9999 -9999 -9999 -9999 -9999 -9999 -9999 -9999 -9999 -9999 -9999 -9999 -9999 -9999
-9999 -9999 -9999 -9999 -9999 -9999 -9999 -9999 -9999 -9999 -9999 -9999 -9999 -9999 -9999 -9999 -9999 -9999 -9999 -9999 -9999 -9999 -9999 -9999 -9999 -9999 -9999 -9999 -9999 -9999 -9999 1314 1345 1449 1348 1321 1373 1329 1215 1123 1098 890 852 729 691 682 703 710 690 668 645 595 570 493 506 514 483 466 437 453 411 393 408 422 459 541 600 645 646 720 773 792 813 835 840 796 756 736 740 678 704 644 650 675 752 790 837 840 854 1031 1214 1446 1361 1253 1401 1635 1697 1503 1380 1162 778 740 752 1356 1809 1639 1696 1952 1788 1534 1540 1868 1834 1750 1657 1627 1726 1831 1623 1647 1599 1377 1082 961 980 1244 1395 1799 1953 2004 1835 1668 1680 1680 2009 2186 2447 2297 2114 1549 1041 983 1277 1513 829 1089 1438 2177 2175 1735 1441 1179 1510 1810 2435 2485 2575 2504 2581 2152 2011 1890 1659 884 2265 2353 2523 2808 2864 3369 3684 3588 3440 3433 3643 3718 3668 3470 3164 3182 3371 2724 2692 2510 2479 2962 2583 2657 2772 2791 2584 2420 2345 2415 2616 2347 2219 1840 2120 2179 2629 2705 2747 2731 2377 2325 2421 2496 2309 2617 2240 2292 2228 2109 2169 2188 2409 2425 2147 1887 1733 2175 2118 2180 1970 2153 2473 2526 2267 2381 2261 1885 1919 1948 2306 2251 2123 2051 1871 1913 1959 1252 1478 1645 1775 2407 2342 2453 2725 2452 2552 2598 2538 2164 1984 2703 2874 2544 2597 2516 2250 2106 2175 1864 1747 1658 1681 1577 1504 1503 1539 1570 1981 2085 2393 1817 2127 2253 2043 1451 1629 2166 2313 2270 2471 2295 2156 2083 1916 2631 2604 2317 1786 1477 1941 2229 2412 2501 3080 3033 2879 2921 2667 2352 2531 2463 2813 2768 2757 2621 2399 1878 1765 1704 1803 2388 2632 2628 2663 2401 2414 2061 2356 2330 2451 2803 2730 -9999 -9999 -9999 -9999 -9999 -9999 -9999 -9999 -9999 -9999 -9999 -9999 -9999 -9999 -9999 -9999 -9999 -9999 -9999 -9999 -9999 -9999 -9999 -9999 -9999 -9999 -9999 -9999 -9999 -9999 -9999 -9999 -9999 -9999 -9999 -9999 -9999 -9999 -9999 -9999 -9999 -9999 -9999 -9999 -9999 -9999 -9999 -9999 -9999 -9999
-9999 -9999 -9999 -9999 -9999 -9999 -9999 -9999 -9999 -9999 -9999 -9999 -9999 -9999 -9999 -9999 -9999 -9999 -9999 -9999 -9999 -9999 -9999 -9999 -9999 -9999 -9999 -9999 -9999 -9999 1352 1384 1473 1412 1323 1340 1384 1301 1147 1072 1028 916 826 710 687 671 669 684 651 636 640 572 533 500 495 475 477 456 423 399 385 404 396 411 428 477 529 575 596 645 657 718 779 819 793 743 704 696 696 719 691 639 679 702 722 763 822 840 863 1030 1118 1213 1249 1216 1646 1747 1330 1305 1403 870 745 769 953 1322 1660 1909 2039 1890 1778 1429 1657 1866 1691 1425 1547 1815 1764 1831 1610 1443 1492 1160 1112 1094 958 1445 1553 1879 2170 2174 1927 1919 1725 1599 1788 2034 2226 1951 1750 1353 1083 1295 1758 2056 1233 989 1427 2177 2328 2194 1822 1486 1443 1510 2169 2536 2758 2212 2075 2061 2014 1562 1398 955 2123 2442 3230 3348 3543 3400 3447 3587 3635 3333 3478 3698 3445 3406 3594 3678 3251 2843 2620 2702 2989 3223 2950 2878 2746 2516 2303 2303 2629 2621 2533 2185 2080 1689 1771 2119 2477 2589 2834 2863 2531 2651 2702 2497 2350 2562 2439 2576 2458 2079 2085 2092 2241 2013 1902 1574 1785 2197 1850 1929 2099 2157 2134 2173 2257 2321 2188 2043 1916 1784 1861 1979 1902 1876 1710 1531 1539 1155 1011 1626 1976 2263 2680 2806 2804 2277 2683 2790 2676 2150 2156 2802 2849 2664 2663 2449 2042 1835 1805 1588 1578 1535 1545 1666 1754 1797 1803 1707 2155 2257 2462 1886 2234 2466 2159 1473 1902 2469 2602 2460 2439 2258 2443 2254 1998 2674 2913 2536 2216 1563 1916 1937 2234 2538 2758 3089 2894 2646 2426 2620 2852 2545 2939 2795 2757 2703 2322 1770 1712 1719 2071 2264 2791 2843 2762 2526 2541 2149 2414 2628 2408 2773 2902 -9999 -9999 -9999 -9999 -9999 -9999 -9999 -9999 -9999 -9999 -9999 -9999 -9999 -9999 -9999 -9999 -9999 -9999 -9999 -9999 -9999 -9999 -9999 -9999 -9999 -9999 -9999 -9999 -9999 -9999 -9999 -9999 -9999 -9999 -9999 -9999 -9999 -9999 -9999 -9999 -9999 -9999 -9999 -9999 -9999 -9999 -9999 -9999 -9999 -9999
-9999 -9999 -9999 -9999 -9999 -9999 -9999 -9999 -9999 -9999 -9999 -9999 -9999 -9999 -9999 -9999 -9999 -9999 -9999 -9999 -9999 -9999 -9999 -9999 -9999 -9999 -9999 -9999 -9999 1361 1424 1465 1324 1295 1368 1417 1363 1319 1133 1031 1074 825 776 712 657 659 625 681 633 584 584 522 507 510 492 437 423 396 390 402 385 398 393 377 381 437 457 500 525 552 599 652 688 727 721 738 696 683 696 703 668 690 693 712 717 789 805 819 848 947 999 1088 1147 1259 1534 1440 1173 1088 1180 746 802 984 1035 1373 1722 1806 2057 2046 1716 1546 1876 1739 1633 1347 1484 1768 1520 1602 1522 1379 1216 1226 1342 1330 960 1567 1775 1957 1901 1790 1874 2054 2066 1656 1763 2264 2079 1565 1619 1190 1275 1438 2019 2173 1580 959 1123 1736 1787 2384 2317 2019 2131 1945 1700 2012 2597 2295 1718 1901 1944 1966 1665 1086 2005 2368 3275 3618 3601 3259 3196 3472 3583 3278 3269 3490 3461 3211 3282 3544 3767 3026 2965 2972 3386 2969 2620 2540 2394 2364 2615 2716 2679 2377 2381 2010 1776 1379 1727 1982 2286 2572 2490 2563 2842 2694 2824 2583 2411 2307 2261 2034 1937 1865 1492 1339 1178 1169 1194 1631 1770 1887 1660 1962 1979 2139 2326 2382 2372 2288 2243 2174 2067 1834 1658 1743 1784 1722 1471 1311 1018 895 936 1801 2205 1847 2520 2850 2664 2277 2829 2727 2486 2192 2418 2832 2925 2717 2408 2205 1670 1620 1715 2005 2007 1688 2018 2547 2430 1995 1933 1773 2274 2426 2432 2113 2476 2441 2062 1479 1882 2584 2714 2582 2481 2315 2587 2114 2186 2876 2697 2144 1863 1575 1725 1926 2145 2373 2639 3145 2859 2746 2577 2872 2933 2744 2771 2614 2446 2337 2068 1721 1724 1829 2122 2485 2535 2678 2818 2785 2345 2283 2215 2738 2606 2713 2842 -9999 -9999 -9999 -9999 -9999 -9999 -9999 -9999 -9999 -9999 -9999 -9999 -9999 -9999 -9999 -9999 -9999 -9999 -9999 -9999 -9999 -9999 -9999 -9999 -9999 -9999 -9999 -9999 -9999 -9999 -9999 -9999 -9999 -9999 -9999 -9999 -9999 -9999 -9999 -9999 -9999 -9999 -9999 -9999 -9999 -9999 -9999 -9999 -9999 -9999
-9999 -9999 -9999 -9999 -9999 -9999 -9999 -9999 -9999 -9999 -9999 -9999 -9999 -9999 -9999 -9999 -9999 -9999 -9999 -9999 -9999 -9999 -9999 -9999 -9999 -9999 -9999 -9999 1321 1480 1498 1361 1285 1279 1370 1344 1140 973 975 874 870 788 756 700 666 663 627 564 624 546 529 485 486 484 453 424 380 370 370 373 380 379 370 370 370 375 396 429 440 440 491 513 616 719 727 810 777 677 676 691 908 897 705 751 766 830 864 817 841 1052 1108 1091 1174 1314 1470 1396 1539 1179 943 750 785 1238 1234 1334 1803 2048 1732 1805 1358 1685 1603 1634 1768 1380 1413 1796 1566 1422 1284 1249 1294 1435 1522 1155 972 1429 1601 1792 1407 1441 1533 1649 1980 2116 1947 2121 1810 1574 1407 1130 1457 1627 1887 2008 1816 1020 1026 1718 2102 2432 2595 2522 2419 2267 2001 1989 2717 2610 1968 2163 2396 2066 1456 1446 2128 2467 2716 2763 3614 3522 3180 2902 2865 2996 3127 3384 3490 3315 3034 2993 3065 3329 3189 3067 3234 3101 2824 2733 2578 2704 2538 2473 2170 1956 1808 1372 1360 1755 1950 1833 1932 1858 2223 2643 2385 2792 2882 2485 2203 2099 1898 1704 1366 1316 1299 1363 1312 1346 1173 1139 1198 1228 1343 1373 1476 1571 1855 2187 2373 2441 2499 2429 2451 2192 1873 1727 1438 1430 1399 1309 1253 901 966 1555 2087 1992 2354 2537 2777 2390 3066 3090 2498 2437 2566 2808 2497 2111 1715 1692 1760 1916 2027 2081 2274 1796 2255 2591 2425 2051 2072 1826 2303 2560 2325 2425 2615 2380 2031 1553 1529 2177 2411 2413 2534 2490 2468 2651 2753 2393 2213 1922 1964 1765 1751 1909 2149 2300 2587 3021 2896 3050 2771 2923 2833 2816 2735 2652 2424 2352 1976 1716 1745 1792 1973 2423 2445 2699 3061 2743 2348 2638 2226 2563 2736 2893 2771 -9999 -9999 -9999 -9999 -9999 -9999 -9999 -9999 -9999 -9999 -9999 -9999 -9999 -9999 -9999 -9999 -9999 -9999 -9999 -9999 -9999 -9999 -9999 -9999 -9999 -9999 -9999 -9999 -9999 -9999 -9999 -9999 -9999 -9999 -9999 -9999 -9999 -9999 -9999 -9999 -9999 -9999 -9999 -9999 -9999 -9999 -9999 -9999 -9999 -9999
-9999 -9999 -9999 -9999 -9999 -9999 -9999 -9999 -9999 -9999 -9999 -9999 -9999 -9999 -9999 -9999 -9999 -9999 -9999 -9999 -9999 -9999 -9999 -9999 -9999 -9999 -9999 1333 1399 1491 1459 1290 1264 1270 1308 1217 1044 879 878 850 832 734 737 698 679 664 632 598 548 528 519 462 457 448 421 401 370 370 370 370 370 370 370 370 370 370 370 370 370 370 376 389 514 728 716 784 798 650 650 704 933 940 734 728 839 822 690 788 826 1146 1321 1210 1291 1328 1488 1562 1572 1130 906 756 892 1414 1521 1390 1807 2108 1641 1417 1380 1429 1383 1631 1744 1249 1387 1683 1448 1356 1320 1381 1516 1720 1773 1225 999 1171 1338 1598 1523 1863 1980 1710 1813 2261 2523 1850 1539 1417 1212 1192 1543 1730 1949 2082 1883 1120 1147 2188 2359 2404 2182 2358 2555 2662 2389 2123 2471 3073 2932 2950 2579 1755 1618 1749 2363 2814 3309 3514 3670 3299 3447 2946 2840 2806 3128 3133 3178 3302 3047 2943 2827 2968 2943 3005 3163 3128 2797 2676 2018 2256 2196 2126 1859 1530 1400 1381 1649 2085 2208 2208 2095 2288 2039 2252 2580 2787 2756 2216 2052 1710 1401 1361 1570 1615 1783 1829 1779 1755 1566 1413 1414 1112 996 986 1091 1259 1503 1781 2079 2153 2169 2135 2248 2343 2235 2034 1744 1682 1687 1780 1555 988 895 1486 1958 2162 2326 2650 2788 2542 3029 3211 2771 2710 2780 2596 2306 1741 2013 2022 2003 2205 2263 2482 2518 1936 2013 2507 2435 2282 2156 1982 2378 2621 2656 2671 2710 2118 1849 1830 1691 1695 1975 2316 2336 2472 2581 2697 2406 2167 2003 2214 2311 1964 1675 1894 2239 2330 2577 2791 2758 2940 2840 2909 2701 2671 2699 2652 2332 2176 1863 1763 1811 1763 1837 2502 2651 2741 2857 2648 2546 2798 2360 2351 2595 2889 -9999 -9999 -9999 -9999 -9999 -9999 -9999 -9999 -9999 -9999 -9999 -9999 -9999 -9999 -9999 -9999 -9999 -9999 -9999 -9999 -9999 -9999 -9999 -9999 -9999 -9999 -9999 -9999 -9999 -9999 -9999 -9999 -9999 -9999 -9999 -9999 -9999 -9999 -9999 -9999 -9999 -9999 -9999 -9999 -9999 -9999 -9999 -9999 -9999 -9999 -9999
-9999 -9999 -9999 -9999 -9999 -9999 -9999 -9999 -9999 -9999 -9999 -9999 -9999 -9999 -9999 -9999 -9999 -9999 -9999 -9999 -9999 -9999 -9999 -9999 -9999 -9999 -9999 1502 1499 1395 1296 1296 1251 1162 1126 1024 902 819 828 838 788 810 760 736 711 672 609 590 519 475 493 464 450 435 392 379 370 370 370 370 370 370 370 370 370 370 370 370 370 370 370 370 370 520 520 548 687 618 677 724 938 1019 783 734 803 636 675 926 1225 1148 1183 1284 1504 1488 1730 1685 1373 981 841 849 1075 1624 1623 1612 2029 1930 1396 1240 1318 1232 1315 1671 1665 1188 1544 1499 1236 1244 1460 1523 1791 1884 1814 1361 1161 999 1343 1266 1622 1789 1945 2168 2173 2318 2176 1857 1718 1593 1185 1296 1683 1792 2145 2267 1948 1241 1176 1703 1730 1743 1954 2195 2684 2887 2749 2602 2577 2686 2589 2463 2242 2095 2088 2318 2914 3189 3663 3767 3453 3092 3051 2925 2788 2752 2808 2934 3317 3533 3188 3080 2867 2714 2759 3023 3146 2954 2951 2730 2180 1821 2130 1877 1503 1351 1356 1622 1756 2262 2532 2596 2359 2390 2351 2254 2697 2477 2400 1932 1736 1413 1712 1735 1979 1860 2173 2108 2169 1927 1824 1717 1660 1663 1418 1305 1042 1002 1286 1523 1567 1651 1707 1837 1909 1912 2226 2303 2241 2220 2110 2017 1633 1053 780 1337 1550 2132 2253 2666 3095 2964 2766 2716 2512 2539 2577 2195 1890 2240 2221 2125 2114 2246 2646 2552 2484 2025 1944 2672 2625 2597 -9999 -9999 -9999 -9999 -9999 2741 2232 2091 2380 2518 2162 -9999 1912 2377 2611 2644 2647 2532 2375 2374 2302 2295 2545 2148 1678 1775 2173 2243 2512 2706 2652 2784 2680 2859 2925 2368 2448 2407 2126 2025 1767 1801 1854 1798 1763 2138 2438 2939 2781 2653 2659 2912 2563 2796 2457 2885 -9999 -9999 -9999 -9999 -9999 -9999 -9999 -9999 -9999 -9999 -9999 -9999 -9999 -9999 -9999 -9999 -9999 -9999 -9999 -9999 -9999 -9999 -9999 -9999 -9999 -9999 -9999 -9999 -9999 -9999 -9999 -9999 -9999 -9999 -9999 -9999 -9999 -9999 -9999 -9999 -9999 -9999 -9999 -9999 -9999 -9999 -9999 -9999 -9999 -9999 -9999
-9999 -9999 -9999 -9999 -9999 -9999 -9999 -9999 -9999 -9999 -9999 -9999 -9999 -9999 -9999 -9999 -9999 -9999 -9999 -9999 -9999 -9999 -9999 -9999 -9999 -9999 1220 1428 1471 1345 1301 1263 1180 1122 992 960 842 755 768 803 867 832 751 731 633 577 502 446 466 437 457 441 430 399 370 370 370 370 370 370 370 370 370 370 370 370 370 370 370 370 370 370 370 370 374 370 432 600 677 723 817 881 803 743 697 582 693 1059 1313 1185 1372 1466 1336 1401 1635 1460 1004 848 811 1045 1153 1487 1875 2010 1761 1520 1388 1424 1171 1187 1263 1232 1132 1160 1180 1179 1182 1288 1684 1689 1877 1906 1800 1371 1357 1271 1024 1142 1498 1573 2025 2292 2466 2050 1853 1889 1882 1382 1254 1443 1792 1936 2265 2123 1656 1179 1185 1419 1566 1588 1723 2284 3039 3077 3388 3332 2849 2663 2609 2618 2443 2286 2408 2553 3413 3717 3547 3511 3334 3003 2963 2827 2803 2738 2682 2781 3342 3470 3502 3420 3093 2542 2654 3062 2783 2925 2418 2666 2338 1990 1661 1536 1346 1471 1643 1769 1841 1935 2424 2669 2778 2576 2576 2630 2647 2167 1994 1646 1510 1812 2082 2096 2311 2285 2558 2442 2320 2267 2101 1984 1925 2039 1841 1831 1621 1319 976 1254 1040 1192 1247 1388 1618 1724 1973 2069 2426 2201 1946 1854 1484 1004 746 1017 1216 1427 2203 2550 2939 3228 2628 2496 2582 2260 2141 2095 2290 2681 2284 2089 2082 2333 2363 2276 2475 2217 2054 2976 2983 -9999 -9999 -9999 -9999 -9999 -9999 2546 2251 2370 2650 2426 -9999 -9999 1740 2088 2411 2509 2854 2739 2845 2835 2506 2593 2578 2229 1778 1771 2174 2399 2694 2623 2490 2766 2642 2900 2953 2656 2437 2093 1927 1882 1828 1870 1999 2024 1790 1927 2233 2567 2749 2892 2887 2963 2847 2896 2732 2922 -9999 -9999 -9999 -9999 -9999 -9999 -9999 -9999 -9999 -9999 -9999 -9999 -9999 -9999 -9999 -9999 -9999 -9999 -9999 -9999 -9999 -9999 -9999 -9999 -9999 -9999 -9999 -9999 -9999 -9999 -9999 -9999 -9999 -9999 -9999 -9999 -9999 -9999 -9999 -9999 -9999 -9999 -9999 -9999 -9999 -9999 -9999 -9999 -9999 -9999 -9999
-9999 -9999 -9999 -9999 -9999 -9999 -9999 -9999 -9999 -9999 -9999 -9999 -9999 -9999 -9999 -9999 -9999 -9999 -9999 -9999 -9999 -9999 -9999 -9999 -9999 1208 1253 1337 1387 1341 1292 1249 1113 1082 916 815 795 720 739 797 826 683 578 538 463 432 419 418 418 392 406 378 418 383 370 370 370 370 370 370 370 370 370 370 370 370 370 370 370 370 370 370 370 370 370 370 370 478 531 597 710 703 641 583 529 611 658 1013 1227 1073 1513 1592 1470 1575 1494 1344 961 816 966 1175 1392 1385 1673 1406 1353 1205 1326 1471 1088 1045 986 1024 1046 1012 1018 1025 1122 1274 1772 1802 1743 1732 1770 1496 1521 1599 1095 1025 1586 1729 1777 2101 2285 1614 1520 1470 1527 1285 1406 1398 1814 2046 2272 2084 1669 1186 1504 1772 1974 2182 2172 2361 3059 3421 2949 2703 2752 2894 2843 3036 2758 2696 2972 3344 3263 3310 3511 3415 3166 3004 2947 2887 2909 2794 2632 2610 2897 3119 3608 3342 2915 2416 2525 2924 2634 2775 2210 2188 2105 1884 1399 1374 1453 1894 2017 2198 2211 1876 2280 2552 2657 2568 2466 2485 2293 1931 1711 1711 1840 2136 2318 2439 2324 2531 2232 2112 1793 1834 2135 2192 2171 2292 2118 2209 2113 1831 1073 977 1075 823 835 1102 1305 1460 1666 1884 2324 2070 1644 1464 1224 802 714 1006 1520 1619 1975 2378 2560 2783 2877 2863 2856 2542 2498 2594 2794 2482 2311 2051 1992 2163 2220 2491 2588 2154 2318 2863 -9999 -9999 -9999 -9999 -9999 -9999 -9999 2318 2237 2629 2853 -9999 -9999 -9999 2081 1802 2018 2177 2521 2661 2797 2784 2460 2759 2591 2251 1998 1755 2212 2403 2471 2424 2333 2611 2408 2605 2520 2753 2498 1958 1818 1793 2017 2204 2468 1947 1853 1956 1869 2160 2637 2856 2793 2821 2728 2616 2548 2807 -9999 -9999 -9999 -9999 -9999 -9999 -9999 -9999 -9999 -9999 -9999 -9999 -9999 -9999 -9999 -9999 -9999 -9999 -9999 -9999 -9999 -9999 -9999 -9999 -9999 -9999 -9999 -9999 -9999 -9999 -9999 -9999 -9999 -9999 -9999 -9999 -9999 -9999 -9999 -9999 -9999 -9999 -9999 -9999 -9999 -9999 -9999 -9999 -9999 -9999 -9999
-9999 -9999 -9999 -9999 -9999 -9999 -9999 -9999 -9999 -9999 -9999 -9999 -9999 -9999 -9999 -9999 -9999 -9999 -9999 -9999 -9999 -9999 -9999 -9999 -9999 1272 1280 1289 1315 1332 1303 1185 1069 1036 916 756 703 657 708 759 725 557 475 441 393 377 370 370 370 379 370 370 370 370 370 370 370 370 370 370 370 370 370 370 370 370 370 370 370 370 370 370 370 370 370 370 370 370 370 370 379 402 409 451 501 566 604 882 989 975 1375 1487 1545 1777 1453 1158 1105 1042 843 1046 1122 1020 1192 1039 927 946 981 982 1209 1466 1185 1253 1253 1378 1131 1062 1093 1196 1444 1401 1397 1425 1612 1695 1663 1643 1297 1032 1414 1653 1947 2060 2137 1646 1718 1458 1472 1292 1701 1560 2091 2466 2149 1866 1546 1398 1905 2199 2347 2743 2765 2724 3091 2895 2588 2632 2784 2984 3076 3177 3123 3409 2968 3034 3083 3048 3302 3389 3114 3035 3144 3422 3566 3026 2574 2548 2605 2947 3328 2914 2776 2240 2571 2803 2566 2235 2319 1949 1696 1520 1329 1468 1748 2190 2271 2587 2474 2314 1987 2271 2487 2362 2198 2213 2065 1743 1817 2168 2184 2219 2532 2380 2413 2351 2294 2181 2052 1672 1591 1970 2320 2419 2491 2510 2055 1830 1563 1288 1195 1183 943 751 850 1221 1432 1868 2123 1949 1616 1365 838 615 685 1205 1726 2245 2328 2307 2233 2632 2932 3046 3042 2862 2845 2871 2684 2316 2415 2026 1733 1769 2354 2710 2664 2173 2427 2825 -9999 -9999 -9999 -9999 -9999 -9999 -9999 -9999 2497 2944 2895 -9999 -9999 -9999 2252 1904 1978 1944 2166 2351 2629 2769 2657 2877 2736 2336 2190 1853 2019 2255 2199 2181 2203 2303 2265 2203 2161 2419 2228 1799 1877 2013 2435 2621 2535 1976 2316 2337 2058 1879 2114 2904 2653 2367 2321 2382 2632 2617 2497 -9999 -9999 -9999 -9999 -9999 -9999 -9999 -9999 -9999 -9999 -9999 -9999 -9999 -9999 -9999 -9999 -9999 -9999 -9999 -9999 -9999 -9999 -9999 -9999 -9999 -9999 -9999 -9999 -9999 -9999 -9999 -9999 -9999 -9999 -9999 -9999 -9999 -9999 -9999 -9999 -9999 -9999 -9999 -9999 -9999 -9999 -9999 -9999 -9999 -9999
-9999 -9999 -9999 -9999 -9999 -9999 -9999 -9999 -9999 -9999 -9999 -9999 -9999 -9999 -9999 -9999 -9999 -9999 -9999 -9999 -9999 -9999 -9999 -9999 -9999 1240 1227 1213 1238 1264 1143 1109 1050 1003 824 688 650 622 684 690 488 466 438 418 370 370 370 370 370 370 370 370 370 370 370 370 370 370 370 370 370 370 370 370 370 370 370 370 370 370 370 370 370 370 370 370 370 370 370 370 370 370 375 412 444 497 542 639 742 950 1250 1426 1393 1703 1323 1054 1456 1527 1084 950 864 913 892 904 979 1134 1175 1184 1498 1785 2028 1751 1749 1343 1534 1373 1086 1109 1243 1318 1600 1604 1498 1845 1858 1707 1383 1078 1236 1396 1746 1919 2120 1872 1844 1504 1722 1352 1874 2175 2451 2807 1804 1641 1524 1883 2167 2570 2736 2995 3377 2988 2710 2473 2544 2736 3008 3124 3104 2937 2844 3086 2526 2728 2892 2918 2893 2937 3470 3628 3859 3297 3297 3290 2705 2519 2484 2685 3024 2660 2271 2198 2732 2756 2637 2025 2036 1816 1381 1328 1481 1698 2022 2388 2560 2592 2516 2200 2012 2268 2603 2435 2121 2033 1970 2116 2163 2308 2478 2611 2557 2621 2415 2398 2419 2306 2287 2105 1850 1540 1847 2208 2302 2371 2191 2134 1800 1720 1501 1210 1199 875 719 1047 1290 1788 2058 1867 1464 1311 879 578 713 1539 2005 2548 2675 2141 1991 2145 2688 2050 2390 2865 2585 2076 2410 2525 2375 2021 1658 1669 2006 2264 2585 2240 2481 2914 -9999 -9999 -9999 -9999 -9999 -9999 -9999 -9999 -9999 -9999 -9999 -9999 -9999 -9999 2211 2058 2316 2177 1960 2073 2487 2851 2837 2905 2799 2442 2271 1928 1856 1909 2003 2100 2323 2480 2638 2709 2462 2085 2005 1793 2106 2453 3029 2953 2199 1921 2557 2830 2558 1879 1979 2292 2390 2146 2688 2699 2866 2755 -9999 -9999 -9999 -9999 -9999 -9999 -9999 -9999 -9999 -9999 -9999 -9999 -9999 -9999 -9999 -9999 -9999 -9999 -9999 -9999 -9999 -9999 -9999 -9999 -9999 -9999 -9999 -9999 -9999 -9999 -9999 -9999 -9999 -9999 -9999 -9999 -9999 -9999 -9999 -9999 -9999 -9999 -9999 -9999 -9999 -9999 -9999 -9999 -9999 -9999 -9999
-9999 -9999 -9999 -9999 -9999 -9999 -9999 -9999 -9999 -9999 -9999 -9999 -9999 -9999 -9999 -9999 -9999 -9999 -9999 -9999 -9999 -9999 -9999 -9999 -9999 1243 1249 1340 1188 1153 1086 1033 946 852 692 637 596 599 592 486 431 430 422 380 370 370 370 370 370 370 370 370 370 370 370 370 -9999 -9999 -9999 -9999 -9999 -9999 -9999 -9999 -9999 -9999 -9999 -9999 -9999 -9999 -9999 -9999 370 370 370 370 370 370 370 370 370 370 370 370 395 433 451 582 742 1083 997 1062 1321 1526 1265 1086 1391 1685 1312 1251 1248 1169 987 966 1457 1394 1425 1427 1343 2034 2011 1720 1581 1419 1485 1203 1221 1365 1227 1933 1713 2326 1968 1915 2220 1938 1357 1147 1102 1250 1569 1725 2103 1760 1657 1588 1817 1397 2041 2444 2750 2375 1769 2001 1857 1371 1673 2056 2077 2569 2982 2473 1982 2317 2798 2990 3151 2953 2867 2636 2462 2951 2272 2542 2585 2555 2845 3327 3151 3617 3801 3119 2916 3214 2814 2493 2451 2472 2876 2684 1913 2361 2711 2531 2472 2045 1641 1459 1313 1382 1679 1975 2362 2207 2581 2587 2393 2604 2374 2444 2467 2416 2468 2498 2409 2284 2314 2639 2543 2437 2460 2711 2388 2251 2167 2077 2448 2146 1926 1620 1461 1921 2088 2069 2403 2360 2103 1973 1682 1624 1613 1397 1217 726 1168 1718 2117 1855 1492 1306 919 562 693 1498 1860 2122 2536 2310 1958 1739 1574 1993 2391 2856 2581 2034 2325 2489 2326 2088 1641 1659 1716 1921 2464 2638 2839 2709 -9999 -9999 -9999 -9999 -9999 -9999 -9999 -9999 -9999 -9999 -9999 -9999 -9999 -9999 2174 2071 2519 2404 2204 2040 2141 2308 2507 2692 2622 2400 2071 2135 1946 2111 2220 2380 2433 2506 2806 2651 2199 1795 1740 1882 2217 2425 2946 2722 2020 2061 2688 2806 2597 1973 2038 2090 2081 2151 2558 2497 2666 2854 -9999 -9999 -9999 -9999 -9999 -9999 -9999 -9999 -9999 -9999 -9999 -9999 -9999 -9999 -9999 -9999 -9999 -9999 -9999 -9999 -9999 -9999 -9999 -9999 -9999 -9999 -9999 -9999 -9999 -9999 -9999 -9999 -9999 -9999 -9999 -9999 -9999 -9999 -9999 -9999 -9999 -9999 -9999 -9999 -9999 -9999 -9999 -9999 -9999 -9999 -9999
-9999 -9999 -9999 -9999 -9999 -9999 -9999 -9999 -9999 -9999 -9999 -9999 -9999 -9999 -9999 -9999 -9999 -9999 -9999 -9999 -9999 -9999 -9999 -9999 -9999 1439 1506 1449 1274 1245 1120 964 709 626 597 546 537 506 485 431 415 415 382 370 370 370 370 370 370 370 370 370 370 370 370 -9999 -9999 -9999 -9999 -9999 -9999 -9999 -9999 -9999 -9999 -9999 -9999 -9999 -9999 -9999 -9999 -9999 -9999 -9999 -9999 370 370 370 370 370 370 370 370 370 370 388 421 503 611 822 873 1136 1456 1633 1587 1243 1118 1561 1529 1656 1512 1323 1278 1266 1371 1485 1859 1524 1503 2052 1893 1633 1576 1547 1274 1085 1471 1693 1192 1971 1945 2323 2084 1894 2166 1612 1522 1481 1075 1074 1534 1894 2010 1995 1879 1827 2032 1541 1990 2188 2424 2103 1968 2086 1882 2055 1553 1441 1458 1897 2299 2018 2010 2417 3102 3085 2919 2576 2557 2527 2174 2594 2196 2189 2341 2518 3482 3335 2843 3208 3354 3076 2821 2619 3035 2619 2401 2413 2695 2522 1836 2217 2448 2399 2199 1763 1356 1294 1501 1682 1655 2083 2475 2286 2528 2754 2720 2586 2395 2562 2814 -9999 -9999 -9999 -9999 -9999 2740 2565 2378 2228 2143 2565 2483 2469 2142 1819 2242 2383 2359 1949 1611 1656 1797 2017 2433 2392 2067 2004 1634 1631 1784 1378 1283 644 651 1213 1827 2095 1935 1693 1088 681 508 1181 1436 1945 2240 2353 1984 1781 1324 1864 2710 2680 2338 2051 2502 2468 2376 2114 1621 1718 1664 1955 2666 2742 2694 2371 -9999 -9999 -9999 -9999 -9999 -9999 -9999 -9999 -9999 -9999 -9999 -9999 -9999 -9999 2133 2195 2653 2507 2429 2368 2009 2109 2162 2525 2601 2272 2118 2226 2006 2315 2450 2558 2578 2568 2263 1931 1806 1780 1887 2136 2472 2502 2741 2447 2007 2289 2853 2703 2514 1981 2191 2492 2315 2105 2238 2336 2403 2438 2315 -9999 -9999 -9999 -9999 -9999 -9999 -9999 -9999 -9999 -9999 -9999 -9999 -9999 -9999 -9999 -9999 -9999 -9999 -9999 -9999 -9999 -9999 -9999 -9999 -9999 -9999 -9999 -9999 -9999 -9999 -9999 -9999 -9999 -9999 -9999 -9999 -9999 -9999 -9999 -9999 -9999 -9999 -9999 -9999 -9999 -9999 -9999 -9999 -9999 -9999
-9999 -9999 -9999 -9999 -9999 -9999 -9999 -9999 -9999 -9999 -9999 -9999 -9999 -9999 -9999 -9999 -9999 -9999 -9999 -9999 -9999 -9999 -9999 -9999 -9999 1406 1561 1359 1214 1119 776 810 660 574 554 503 491 470 449 424 403 403 370 370 370 370 370 370 370 370 370 370 370 370 -9999 -9999 -9999 -9999 -9999 -9999 -9999 -9999 -9999 -9999 -9999 -9999 -9999 -9999 -9999 -9999 -9999 -9999 -9999 -9999 -9999 -9999 -9999 -9999 -9999 370 370 370 370 370 370 370 370 370 582 693 1040 1190 1624 1760 1733 1429 1218 1383 1654 1446 1399 1614 1470 1313 1155 1307 1860 1811 2018 2118 1952 1650 1480 1427 1389 1097 1671 1842 1186 1699 1882 2225 2084 1966 1987 1705 1725 1618 1134 1079 1338 1792 1899 2042 2245 2310 2035 1964 2199 2390 2422 2364 2032 2089 2341 2587 2499 2189 2265 1585 1695 1739 2456 2792 3041 2842 2498 2619 2225 2320 2050 2081 1996 2077 2573 2897 3315 3397 2773 2891 3091 3270 3000 2562 2555 2484 2361 2354 2489 2399 1725 1821 2071 2213 1965 1447 1291 1402 1811 2141 1916 1790 2544 2676 2699 2833 2696 2690 -9999 -9999 -9999 -9999 -9999 -9999 -9999 -9999 2789 2600 2524 1946 1981 2336 2598 2368 1975 1864 1936 2375 2190 1952 1568 1499 1879 2230 2758 2770 2411 2097 2240 2455 2433 1983 1775 1230 738 911 1515 1774 2220 1933 1362 885 641 569 1028 1592 1942 1867 1661 1549 1229 1734 2727 2882 2238 1714 2083 1965 2082 2186 1643 1598 1466 1531 2226 2349 -9999 -9999 -9999 -9999 -9999 -9999 -9999 -9999 -9999 -9999 -9999 -9999 -9999 -9999 -9999 -9999 2162 2173 2744 2617 2637 2381 2048 2406 2344 2331 2653 2382 2392 2255 2229 2482 2616 2473 2226 2099 1792 1789 1818 1989 2181 2438 2516 2702 2612 2221 2191 2598 3027 2671 2494 2109 2411 2748 2535 2198 2314 2587 2648 2396 2219 2724 -9999 -9999 -9999 -9999 2912 -9999 -9999 -9999 -9999 -9999 -9999 -9999 -9999 -9999 -9999 -9999 -9999 -9999 -9999 -9999 -9999 -9999 -9999 -9999 -9999 -9999 -9999 -9999 -9999 -9999 -9999 -9999 -9999 -9999 -9999 -9999 -9999 -9999 -9999 -9999 -9999 -9999 -9999 -9999 -9999 -9999 -9999 -9999 -9999
-9999 -9999 -9999 -9999 -9999 -9999 -9999 -9999 -9999 -9999 -9999 -9999 -9999 -9999 -9999 -9999 -9999 -9999 -9999 -9999 -9999 -9999 -9999 -9999 -9999 1410 1424 1282 1079 889 657 611 548 513 526 476 455 436 424 412 388 370 370 370 370 370 370 370 370 370 370 370 -9999 -9999 -9999 -9999 -9999 -9999 -9999 -9999 -9999 -9999 -9999 -9999 -9999 -9999 -9999 -9999 -9999 -9999 -9999 -9999 -9999 -9999 -9999 -9999 -9999 -9999 -9999 -9999 -9999 370 370 370 370 370 370 370 394 667 923 1095 1673 1732 1657 1400 1402 1224 1357 1258 1487 1583 1490 1386 1156 1142 1495 1646 1706 1893 1855 1889 1734 1872 1480 1118 1527 1787 1256 1392 1510 1759 1887 2009 1883 1877 1723 1475 1313 1363 1098 1326 1584 1833 2080 2338 2189 2137 2372 2622 2619 2527 2191 2515 2389 3124 3411 3341 2813 2355 2765 3063 2690 2593 2442 2339 2009 1824 1748 1766 1912 1911 2194 2390 3031 3056 2961 3180 2646 2875 3154 3436 3247 2970 2286 2238 2309 2331 2462 2467 1713 1483 1700 1898 1656 1274 1540 1752 2036 2295 2310 1911 2358 2903 3080 2963 2912 -9999 -9999 -9999 -9999 -9999 -9999 -9999 -9999 -9999 -9999 2380 2238 1982 1601 2231 2427 2210 1824 1618 1557 2151 2202 1703 1337 1454 1746 2192 2512 2676 2792 2578 2585 2500 2488 1912 1774 1403 1047 656 1151 1418 1980 2070 1631 1433 1061 495 452 1152 1551 1397 1158 1150 1365 1694 2526 2721 2269 1703 1520 2045 2206 2266 1721 1491 1228 1235 1869 2293 -9999 -9999 -9999 -9999 -9999 -9999 -9999 -9999 -9999 -9999 -9999 -9999 -9999 -9999 -9999 -9999 2318 1937 2279 2678 2569 2380 2185 2540 2588 2331 2527 2546 2385 2321 2436 2665 2449 2347 1990 1895 1760 1883 1887 2230 2417 2566 2715 3021 2542 2157 2442 2847 3148 2825 2589 2265 2612 2782 2651 2254 2215 2324 2455 2374 2114 2383 2863 2641 2850 2834 2542 2474 -9999 -9999 -9999 -9999 -9999 -9999 -9999 -9999 -9999 -9999 -9999 -9999 -9999 -9999 -9999 -9999 -9999 -9999 -9999 -9999 -9999 -9999 -9999 -9999 -9999 -9999 -9999 -9999 -9999 -9999 -9999 -9999 -9999 -9999 -9999 -9999 -9999 -9999 -9999 -9999 -9999 -9999 -9999
